# .PCD v0.7 - Point Cloud Data file format
VERSION 0.7
FIELDS x y z
SIZE 4 4 4
TYPE F F F
COUNT 1 1 1
WIDTH 1505
HEIGHT 1
VIEWPOINT 0 0 0 1 0 0 0
POINTS 1505
DATA ascii
-255.37654 1.6009736 -5.8925114
-255.23863 1.6071572 -5.8900537
-255.32248 1.6071572 -5.8225369
-255.18221 1.6194942 -5.8228087
-255.2688 1.6194942 -5.7530746
-255.12648 1.6379244 -5.7563872
-255.21579 1.6379244 -5.6844625
-255.0717 1.6623582 -5.6911116
-255.16368 1.6623582 -5.6170344
-255.01816 1.6926765 -5.6273012
-255.11276 1.6926765 -5.5511198
-254.96611 1.7287315 -5.5652661
-255.06325 1.7287315 -5.4870391
-254.9158 1.7703477 -5.5053091
-255.01538 1.7703477 -5.4251046
-254.86748 1.8173223 -5.4477215
-254.96942 1.8173223 -5.3656182
-254.82138 1.8694264 -5.3927846
-254.92558 1.8694264 -5.3088698
-254.77773 1.926406 -5.3407655
-254.88406 1.926406 -5.2551355
-254.73674 1.9879838 -5.2919183
-254.84506 1.9879838 -5.2046771
-254.69861 2.0538597 -5.2464805
-254.80881 2.0538597 -5.1577411
-254.66353 2.1237128 -5.2046738
-254.77544 2.1237128 -5.1145554
-254.63167 2.1972024 -5.1667013
-254.74513 2.1972024 -5.0753307
-254.60318 2.2739711 -5.1327481
-254.71803 2.2739711 -5.0402584
-254.5782 2.3536444 -5.1029801
-254.69426 2.3536444 -5.0095086
-254.55685 2.4358344 -5.0775423
-254.67397 2.4358344 -4.983232
-254.53925 2.5201406 -5.0565581
-254.65721 2.5201406 -4.961556
-254.52547 2.6061521 -5.0401301
-254.6441 2.6061521 -4.9445863
-254.51558 2.6934502 -5.0283384
-254.63469 2.6934502 -4.9324059
-254.50961 2.7816093 -5.0212407
-254.62903 2.7816093 -4.9250736
-254.50763 2.8701999 -5.0188708
-254.62714 2.8701999 -4.9226255
-255.14157 1.6009736 -6.0978823
-255.14111 1.6002001 -6.1611471
-255.06897 1.6009736 -6.1724606
-255.05614 1.6002001 -6.2523708
-254.99942 1.6009736 -6.2499013
-254.97574 1.6002001 -6.3476543
-254.93306 1.6009736 -6.3300796
-254.90012 1.6002001 -6.4467678
-254.86998 1.6009736 -6.4128652
-254.81027 1.6009736 -6.4981232
-254.73683 1.6071572 -6.4488716
-254.6787 1.6071572 -6.5394621
-254.60388 1.6194942 -6.4935455
-254.54764 1.6194942 -6.5894532
-254.47197 1.6379244 -6.5471115
-254.418 1.6379244 -6.6482868
-254.34203 1.6623582 -6.609704
-254.29068 1.6623582 -6.7160606
-254.21495 1.6926765 -6.681365
-254.1666 1.6926765 -6.7927804
-254.09167 1.7287315 -6.7620416
-254.04668 1.7287315 -6.8783555
-253.97313 1.7703477 -6.8515859
-253.93182 1.7703477 -6.9726009
-253.8602 1.8173223 -6.9497552
-253.82294 1.8173223 -7.0752378
-253.7538 1.8694264 -7.0562119
-253.7209 1.8694264 -7.1858926
-253.65475 1.926406 -7.1705279
-253.62656 1.926406 -7.3041039
-253.56392 1.9879838 -7.2921891
-253.54068 1.9879838 -7.4293242
-253.48201 2.0538597 -7.4205961
-253.46402 2.0538597 -7.560925
-253.40976 2.1237128 -7.5550747
-253.39723 2.1237128 -7.6982036
-253.34778 2.1972024 -7.6948786
-253.34093 2.1972024 -7.8403902
-253.29663 2.2739711 -7.8392005
-253.29564 2.2739711 -7.9866543
-253.25677 2.3536444 -7.9871759
-253.26178 2.3536444 -8.1361141
-253.22862 2.4358344 -8.1378965
-253.23972 2.4358344 -8.2878466
-253.21245 2.5201406 -8.2904177
-253.22969 2.5201406 -8.4408951
-253.20844 2.6061521 -8.4437656
-253.23186 2.6061521 -8.5942802
-253.21671 2.6934502 -8.5969534
-253.24629 2.6934502 -8.7470112
-253.23724 2.7816093 -8.7489862
-253.27293 2.7816093 -8.8980932
-253.26993 2.8701999 -8.8988743
-253.31163 2.8701999 -9.0465431
-253.31459 2.7816093 -9.0456429
-253.35925 2.8701999 -9.1924143
-253.36217 2.7816093 -9.1913948
-253.41269 2.8701999 -9.3362494
-253.41557 2.7816093 -9.3351135
-253.47189 2.8701999 -9.4778156
-253.47472 2.7816093 -9.4765644
-253.53674 2.8701999 -9.6168833
-253.53952 2.7816093 -9.6155195
-253.60713 2.8701999 -9.7532272
-253.60985 2.7816093 -9.7517529
-253.68297 2.8701999 -9.8866253
-253.68562 2.7816093 -9.8850431
-253.7641 2.8701999 -10.016863
-253.76669 2.7816093 -10.015174
-253.85042 2.8701999 -10.143727
-253.85294 2.7816093 -10.141936
-253.94177 2.8701999 -10.267014
-253.94423 2.7816093 -10.265121
-254.03802 2.8701999 -10.38652
-254.04039 2.7816093 -10.384532
-254.13899 2.8701999 -10.502056
-254.14128 2.7816093 -10.499973
-254.24455 2.8701999 -10.613432
-254.24675 2.7816093 -10.611259
-254.35449 2.8701999 -10.720467
-254.35661 2.7816093 -10.718206
-254.46866 2.8701999 -10.822988
-254.47069 2.7816093 -10.820644
-254.58687 2.8701999 -10.920829
-254.58879 2.7816093 -10.918406
-254.70892 2.8701999 -11.01383
-254.71074 2.7816093 -11.011333
-254.83461 2.8701999 -11.101843
-254.83633 2.7816093 -11.099273
-254.96375 2.8701999 -11.184722
-254.96536 2.7816093 -11.182085
-255.09612 2.8701999 -11.262335
-255.09763 2.7816093 -11.259635
-255.23151 2.8701999 -11.334554
-255.23291 2.7816093 -11.331796
-255.36969 2.8701999 -11.401263
-255.37097 2.7816093 -11.398451
-255.51045 2.8701999 -11.462355
-255.51163 2.7816093 -11.459493
-255.65355 2.8701999 -11.517729
-255.6546 2.7816093 -11.514822
-255.79877 2.8701999 -11.567296
-255.79971 2.7816093 -11.564348
-255.94586 2.8701999 -11.610975
-255.94669 2.7816093 -11.607992
-256.0946 2.8701999 -11.648696
-256.09531 2.7816093 -11.645682
-256.24472 2.8701999 -11.680397
-256.2453 2.7816093 -11.677358
-256.39603 2.8701999 -11.706028
-256.39648 2.7816093 -11.702968
-256.54822 2.8701999 -11.725545
-256.54855 2.7816093 -11.722469
-256.70108 2.8701999 -11.738919
-256.70129 2.7816093 -11.735832
-256.85437 2.8701999 -11.746126
-256.85443 2.7816093 -11.743034
-257.00781 2.8701999 -11.747157
-257.00775 2.7816093 -11.744063
-257.16116 2.8701999 -11.742007
-257.16098 2.7816093 -11.738918
-257.31418 2.8701999 -11.730687
-257.3139 2.7816093 -11.727607
-257.46661 2.8701999 -11.713215
-257.46622 2.7816093 -11.710149
-257.61826 2.8701999 -11.689617
-257.61771 2.7816093 -11.686571
-257.7688 2.8701999 -11.659935
-257.76813 2.7816093 -11.656912
-257.91803 2.8701999 -11.624214
-257.91724 2.7816093 -11.621221
-258.0657 2.8701999 -11.582514
-258.06479 2.7816093 -11.579554
-258.21155 2.8701999 -11.534901
-258.21054 2.7816093 -11.53198
-258.35541 2.8701999 -11.481453
-258.35425 2.7816093 -11.478575
-258.49695 2.8701999 -11.422256
-258.49573 2.7816093 -11.419427
-258.63602 2.8701999 -11.357409
-258.63467 2.7816093 -11.354631
-258.77237 2.8701999 -11.287013
-258.7709 2.7816093 -11.284293
-258.90576 2.8701999 -11.211185
-258.90421 2.7816093 -11.208527
-259.03601 2.8701999 -11.130046
-259.03433 2.7816093 -11.127454
-259.16287 2.8701999 -11.04373
-259.16107 2.7816093 -11.041207
-259.28616 2.8701999 -10.952374
-259.28427 2.7816093 -10.949926
-259.40567 2.8701999 -10.85613
-259.40369 2.7816093 -10.85376
-259.52121 2.8701999 -10.75515
-259.51913 2.7816093 -10.752862
-259.63257 2.8701999 -10.649601
-259.6304 2.7816093 -10.647399
-259.73962 2.8701999 -10.539653
-259.73737 2.7816093 -10.537539
-259.84213 2.8701999 -10.425484
-259.83978 2.7816093 -10.423463
-259.93997 2.8701999 -10.307279
-259.93756 2.7816093 -10.305354
-260.03299 2.8701999 -10.18523
-260.03049 2.7816093 -10.183405
-260.121 2.8701999 -10.059536
-260.11841 2.7816093 -10.057813
-260.20386 2.8701999 -9.9303999
-260.20123 2.7816093 -9.9287815
-260.28149 2.8701999 -9.7980309
-260.27878 2.7816093 -9.7965202
-260.3537 2.8701999 -9.6626444
-260.35095 2.7816093 -9.6612434
-260.42041 2.8701999 -9.5244598
-260.4176 2.7816093 -9.5231714
-260.48151 2.8701999 -9.3837013
-260.47864 2.7816093 -9.3825274
-260.53687 2.8701999 -9.2405968
-260.53397 2.7816093 -9.2395382
-260.58646 2.8701999 -9.0953789
-260.5835 2.7816093 -9.0944386
-260.63013 2.8701999 -8.9482822
-260.62714 2.7816093 -8.9474621
-260.66785 2.8701999 -8.7995472
-260.66483 2.7816093 -8.7988472
-260.69955 2.8701999 -8.6494131
-260.6965 2.7816093 -8.6488352
-260.72519 2.8701999 -8.4981241
-260.72211 2.7816093 -8.4976692
-260.74469 2.8701999 -8.3459263
-260.74161 2.7816093 -8.3455944
-260.75806 2.8701999 -8.1930656
-260.75497 2.7816093 -8.1928587
-260.76529 2.8701999 -8.0397911
-260.76218 2.7816093 -8.0397081
-260.7663 2.8701999 -7.8863502
-260.76321 2.7816093 -7.8863916
-260.76117 2.8701999 -7.7329922
-260.75806 2.7816093 -7.7331581
-260.74985 2.8701999 -7.5799661
-260.74677 2.7816093 -7.580256
-260.73236 2.8701999 -7.4275193
-260.72931 2.7816093 -7.4279337
-260.70877 2.8701999 -7.2759004
-260.70572 2.7816093 -7.2764378
-260.67908 2.8701999 -7.1253543
-260.67606 2.7816093 -7.1260138
-260.64337 2.8701999 -6.9761257
-260.64038 2.7816093 -6.9769063
-260.60165 2.8701999 -6.8284564
-260.59869 2.7816093 -6.8293571
-260.55405 2.8701999 -6.6825862
-260.55112 2.7816093 -6.6836052
-260.50061 2.8701999 -6.5387511
-260.49771 2.7816093 -6.539887
-260.44141 2.8701999 -6.3971848
-260.43857 2.7816093 -6.3984356
-260.37656 2.8701999 -6.2581172
-260.37378 2.7816093 -6.2594805
-260.30615 2.8701999 -6.1217732
-260.30344 2.7816093 -6.1232476
-260.23035 2.8701999 -5.9883742
-260.22766 2.7816093 -5.9899573
-260.1492 2.8701999 -5.8581371
-260.14661 2.7816093 -5.8598256
-260.06287 2.8701999 -5.7312727
-260.06036 2.7816093 -5.7330642
-259.97153 2.8701999 -5.6079869
-259.96909 2.7816093 -5.6098781
-259.87527 2.8701999 -5.4884791
-259.87289 2.7816093 -5.4904675
-259.77429 2.8701999 -5.3729439
-259.772 2.7816093 -5.3750262
-259.66876 2.8701999 -5.2615685
-259.66653 2.7816093 -5.2637415
-259.55881 2.8701999 -5.1545334
-259.5567 2.7816093 -5.1567931
-259.44464 2.8701999 -5.0520124
-259.4426 2.7816093 -5.0543551
-259.32642 2.8701999 -4.9541717
-259.32449 2.7816093 -4.956594
-259.20438 2.8701999 -4.8611698
-259.20255 2.7816093 -4.8636675
-259.07867 2.8701999 -4.7731576
-259.07697 2.7816093 -4.7757268
-258.94955 2.8701999 -4.6902781
-258.94794 2.7816093 -4.692915
-258.81717 2.8701999 -4.6126657
-258.81567 2.7816093 -4.615365
-258.68179 2.8701999 -4.5404458
-258.68039 2.7816093 -4.5432043
-258.54361 2.8701999 -4.4737363
-258.54233 2.7816093 -4.4765491
-258.40286 2.8701999 -4.4126453
-258.40167 2.7816093 -4.4155073
-258.25974 2.8701999 -4.3572712
-258.2587 2.7816093 -4.360178
-258.11453 2.8701999 -4.3077044
-258.11359 2.7816093 -4.3106518
-257.96744 2.8701999 -4.2640247
-257.96661 2.7816093 -4.2670078
-257.8187 2.8701999 -4.2263041
-257.81799 2.7816093 -4.2293177
-257.66855 2.8701999 -4.1946025
-257.66797 2.7816093 -4.1976418
-257.51727 2.8701999 -4.1689725
-257.51682 2.7816093 -4.1720324
-257.36508 2.8701999 -4.1494546
-257.36475 2.7816093 -4.1525302
-257.21222 2.8701999 -4.1360812
-257.21201 2.7816093 -4.1391678
-257.05893 2.8701999 -4.1288733
-257.05887 2.7816093 -4.1319661
-256.90549 2.8701999 -4.1278434
-256.90555 2.7816093 -4.1309366
-256.75214 2.8701999 -4.1329927
-256.75232 2.7816093 -4.1360817
-256.59912 2.8701999 -4.1443129
-256.5994 2.7816093 -4.1473927
-256.44666 2.8701999 -4.1617856
-256.44708 2.7816093 -4.1648512
-256.29504 2.8701999 -4.1853824
-256.29559 2.7816093 -4.1884294
-256.1445 2.8701999 -4.2150655
-256.14517 2.7816093 -4.2180882
-255.99527 2.8701999 -4.2507863
-255.99605 2.7816093 -4.2537794
-255.84761 2.8701999 -4.2924867
-255.84851 2.7816093 -4.2954464
-255.70174 2.8701999 -4.3400993
-255.70276 2.7816093 -4.3430204
-255.55789 2.8701999 -4.3935471
-255.55904 2.7816093 -4.3964248
-255.41634 2.8701999 -4.4527435
-255.41759 2.7816093 -4.4555731
-255.27727 2.8701999 -4.5175915
-255.27863 2.7816093 -4.5203686
-255.14091 2.8701999 -4.5879869
-255.1424 2.7816093 -4.5907068
-255.00752 2.8701999 -4.6638155
-255.00911 2.7816093 -4.6664739
-254.87729 2.8701999 -4.7449541
-254.87897 2.7816093 -4.7475462
-254.75043 2.8701999 -4.8312707
-254.75221 2.7816093 -4.8337927
-254.82945 1.6002001 -6.5494728
-254.75406 1.6009736 -6.5857162
-254.62425 1.6071572 -6.6323199
-254.49532 1.6194942 -6.6875477
-254.36815 1.6379244 -6.7515531
-254.24367 1.6623582 -6.824399
-254.12277 1.6926765 -6.9060526
-254.00638 1.7287315 -6.9963875
-253.89542 1.7703477 -7.0951815
-253.79076 1.8173223 -7.2021189
-253.69327 1.8694264 -7.3167925
-253.60374 1.926406 -7.4387069
-253.52298 1.9879838 -7.5672836
-253.45169 2.0538597 -7.7018647
-253.39049 2.1237128 -7.8417211
-253.33995 2.1972024 -7.9860592
-253.30058 2.2739711 -8.1340284
-253.27277 2.3536444 -8.2847309
-253.25684 2.4358344 -8.4372282
-253.25298 2.5201406 -8.5905561
-253.26132 2.6061521 -8.7437296
-253.28189 2.6934502 -8.8957558
-254.7639 1.6002001 -6.6555214
-254.70142 1.6009736 -6.6755023
-254.57358 1.6071572 -6.7272949
-254.44698 1.6194942 -6.7876692
-254.32249 1.6379244 -6.8567433
-254.20105 1.6623582 -6.9345427
-254.08354 1.6926765 -7.020998
-253.97089 1.7287315 -7.1159458
-253.86398 1.7703477 -7.2191277
-253.76372 1.8173223 -7.3301926
-253.67091 1.8694264 -7.448699
-253.58638 1.926406 -7.5741191
-253.51086 1.9879838 -7.7058434
-253.44504 2.0538597 -7.8431864
-253.38951 2.1237128 -7.985394
-253.34485 2.1972024 -8.13165
-253.31146 2.2739711 -8.2810841
-253.28975 2.3536444 -8.4327841
-253.27995 2.4358344 -8.5858002
-253.28229 2.5201406 -8.7391586
-253.29678 2.6061521 -8.8918715
-253.32346 2.6934502 -9.0429459
-254.70364 1.6002001 -6.7646585
-254.65242 1.6009736 -6.7673349
-254.52678 1.6071572 -6.8242326
-254.40271 1.6194942 -6.8896556
-254.28111 1.6379244 -6.9636865
-254.16289 1.6623582 -7.0463128
-254.04897 1.6926765 -7.1374297
-253.94023 1.7287315 -7.2368364
-253.83757 1.7703477 -7.3442392
-253.74185 1.8173223 -7.4592514
-253.6539 1.8694264 -7.5813985
-253.57449 1.926406 -7.7101207
-253.50433 1.9879838 -7.844779
-253.44409 2.0538597 -7.9846611
-253.39433 2.1237128 -8.1289892
-253.35559 2.1972024 -8.2769251
-253.32825 2.2739711 -8.4275827
-253.31265 2.3536444 -8.5800333
-253.30904 2.4358344 -8.7333193
-253.31754 2.5201406 -8.8864603
-253.33818 2.6061521 -9.0384655
-253.37091 2.6934502 -9.188343
-254.6488 1.6002001 -6.8766212
-254.60718 1.6009736 -6.8610654
-254.48393 1.6071572 -6.922976
-254.36259 1.6194942 -6.9933419
-254.24408 1.6379244 -7.0722089
-254.12927 1.6623582 -7.1595287
-254.0191 1.6926765 -7.2551594
-253.91446 1.7287315 -7.3588638
-253.81621 1.7703477 -7.4703131
-253.7252 1.8173223 -7.5890861
-253.64224 1.8694264 -7.7146754
-253.56807 1.926406 -7.8464909
-253.5034 1.9879838 -7.9838648
-253.44884 2.0538597 -8.1260595
-253.40494 2.1237128 -8.2722731
-253.37218 2.1972024 -8.4216499
-253.35092 2.2739711 -8.5732861
-253.34149 2.3536444 -8.7262411
-253.34404 2.4358344 -8.8795481
-253.3587 2.5201406 -9.0322227
-253.38545 2.6061521 -9.1832733
-253.42419 2.6934502 -9.3317118
-254.56573 1.6009736 -6.956542
-254.59953 1.6002001 -6.9911394
-254.52818 1.6009736 -7.0536098
-254.55594 1.6002001 -7.1079378
-254.49455 1.6009736 -7.1521111
-254.51813 1.6002001 -7.2267342
-254.46494 1.6009736 -7.2518864
-254.48619 1.6002001 -7.3472433
-254.43935 1.6009736 -7.3527737
-254.46019 1.6002001 -7.4691744
-254.41785 1.6009736 -7.4546094
-254.40045 1.6009736 -7.5572286
-254.31299 1.6071572 -7.5442166
-254.2993 1.6071572 -7.6509852
-254.21202 1.6194942 -7.6415749
-254.20233 1.6194942 -7.7523298
-254.11581 1.6379244 -7.7465138
-254.11043 1.6379244 -7.8610573
-254.02525 1.6623582 -7.8587694
-254.02446 1.6623582 -7.9768686
-253.94116 1.6926765 -7.9779873
-253.94525 1.6926765 -8.0993757
-253.86438 1.7287315 -8.1037226
-253.87358 1.7287315 -8.2281008
-253.79565 1.7703477 -8.235445
-253.81023 1.7703477 -8.362484
-253.73572 1.8173223 -8.3725462
-253.75584 1.8173223 -8.5018873
-253.68523 1.8694264 -8.5143404
-253.71111 1.8694264 -8.6455994
-253.64476 1.926406 -8.6600742
-253.67654 1.926406 -8.7928448
-253.61484 1.9879838 -8.8089342
-253.65263 1.9879838 -8.9427891
-253.59589 2.0538597 -8.9600544
-253.63979 2.0538597 -9.0945492
-253.58826 2.1237128 -9.112525
-253.63831 2.1237128 -9.2472029
-253.59219 2.1972024 -9.2654018
-253.64839 2.1972024 -9.3997974
-253.60786 2.2739711 -9.417716
-253.67018 2.2739711 -9.5513573
-253.6353 2.3536444 -9.5684862
-253.70366 2.3536444 -9.700901
-253.67447 2.4358344 -9.7167263
-253.74878 2.4358344 -9.8474436
-253.72523 2.5201406 -9.8614569
-253.80533 2.5201406 -9.9900122
-253.78735 2.6061521 -10.001717
-253.87305 2.6061521 -10.127657
-253.86049 2.6934502 -10.13657
-253.95155 2.6934502 -10.259457
-254.44023 1.6002001 -7.5922337
-254.38722 1.6009736 -7.6604648
-254.28992 1.6071572 -7.7582183
-254.19711 1.6194942 -7.8633852
-254.10966 1.6379244 -7.9757247
-254.02843 1.6623582 -8.0949039
-253.95421 1.6926765 -8.2205009
-253.88779 1.7287315 -8.3520069
-253.82988 1.7703477 -8.4888334
-253.78117 1.8173223 -8.630312
-253.74225 1.8694264 -8.7757101
-253.71364 1.926406 -8.9242277
-253.6958 1.9879838 -9.0750122
-253.68907 2.0538597 -9.2271671
-253.69374 2.1237128 -9.3797569
-253.70996 2.1972024 -9.5318213
-253.73782 2.2739711 -9.6823816
-253.7773 2.3536444 -9.8304548
-253.82828 2.4358344 -9.9750624
-253.89053 2.5201406 -10.115239
-253.96373 2.6061521 -10.250045
-254.04749 2.6934502 -10.378576
-254.42632 1.6002001 -7.7161245
-254.37814 1.6009736 -7.7641497
-254.28487 1.6071572 -7.8657422
-254.19637 1.6194942 -7.9745607
-254.11351 1.6379244 -8.0903301
-254.03714 1.6623582 -8.2126846
-253.96803 1.6926765 -8.3411674
-253.90697 1.7287315 -8.4752417
-253.85461 1.7703477 -8.6142883
-253.81165 1.8173223 -8.7576141
-253.77861 1.8694264 -8.9044609
-253.756 1.926406 -9.0540094
-253.74425 1.9879838 -9.2053909
-253.74365 2.0538597 -9.3576937
-253.75446 2.1237128 -9.5099716
-253.77679 2.1972024 -9.6612587
-253.8107 2.2739711 -9.8105755
-253.85611 2.3536444 -9.9569397
-253.91286 2.4358344 -10.099377
-253.9807 2.5201406 -10.236933
-254.05928 2.6061521 -10.368682
-254.14813 2.6934502 -10.493736
-254.4185 1.6002001 -7.8405485
-254.37326 1.6009736 -7.8681159
-254.28413 1.6071572 -7.9733825
-254.20009 1.6194942 -8.0856762
-254.12198 1.6379244 -8.2046881
-254.05058 1.6623582 -8.330018
-253.98671 1.6926765 -8.4611797
-253.93109 1.7287315 -8.5976038
-253.88438 1.7703477 -8.7386456
-253.84721 1.8173223 -8.8835859
-253.82011 1.8694264 -9.0316439
-253.80356 1.926406 -9.1819811
-253.7979 1.9879838 -9.3337135
-253.80344 2.0538597 -9.4859161
-253.82037 2.1237128 -9.6376362
-253.84879 2.1972024 -9.7879009
-253.88867 2.2739711 -9.9357309
-253.93994 2.3536444 -10.080148
-254.00238 2.4358344 -10.220184
-254.0757 2.5201406 -10.354897
-254.15952 2.6061521 -10.483376
-254.25334 2.6934502 -10.604751
-254.41679 1.6002001 -7.9652066
-254.37256 1.6009736 -7.9721951
-254.28775 1.6071572 -8.0809641
-254.2083 1.6194942 -8.1965513
-254.13503 1.6379244 -8.3186121
-254.06874 1.6623582 -8.4467144
-254.01021 1.6926765 -8.5803423
-253.96013 1.7287315 -8.7188959
-253.91914 1.7703477 -8.8617029
-253.88783 1.8173223 -9.0080223
-253.86671 1.8694264 -9.1570511
-253.85623 1.926406 -9.3079338
-253.85669 1.9879838 -9.4597712
-253.86835 2.0538597 -9.6116266
-253.89137 2.1237128 -9.7625427
-253.92581 2.1972024 -9.9115419
-253.97162 2.2739711 -10.057646
-254.02866 2.3536444 -10.199881
-254.09669 2.4358344 -10.33729
-254.17538 2.5201406 -10.468941
-254.2643 2.6061521 -10.59394
-254.36293 2.6934502 -10.711439
-254.37605 1.6009736 -8.0762177
-254.42122 1.6002001 -8.089798
-254.38373 1.6009736 -8.1800156
-254.43175 1.6002001 -8.2140217
-254.39558 1.6009736 -8.2834196
-254.44835 1.6002001 -8.3375797
-254.41159 1.6009736 -8.3862629
-254.47101 1.6002001 -8.4601746
-254.43172 1.6009736 -8.4883785
-254.49965 1.6002001 -8.5815096
-254.45595 1.6009736 -8.5895996
-254.48424 1.6009736 -8.689764
-254.39964 1.6071572 -8.7155046
-254.43304 1.6071572 -8.8178339
-254.35016 1.6194942 -8.8467474
-254.38889 1.6194942 -8.950963
-254.30823 1.6379244 -8.9827957
-254.35246 1.6379244 -9.0885887
-254.27452 1.6623582 -9.1230383
-254.32443 1.6623582 -9.2300749
-254.24966 1.6926765 -9.2667913
-254.30539 1.6926765 -9.374712
-254.23419 1.7287315 -9.4133053
-254.29582 1.7287315 -9.5217304
-254.22858 1.7703477 -9.5617714
-254.29619 1.7703477 -9.6703024
-254.2332 1.8173223 -9.7113304
-254.30684 1.8173223 -9.8195534
-254.24837 1.8694264 -9.8610811
-254.32802 1.8694264 -9.9685726
-254.27428 1.926406 -10.010092
-254.35991 1.926406 -10.116419
-254.31107 1.9879838 -10.157407
-254.4026 1.9879838 -10.262133
-254.35873 2.0538597 -10.302058
-254.45605 2.0538597 -10.404749
-254.41721 2.1237128 -10.443079
-254.52016 2.1237128 -10.5433
-254.4863 2.1972024 -10.579508
-254.59468 2.1972024 -10.676836
-254.56573 2.2739711 -10.710403
-254.67934 2.2739711 -10.804426
-254.65517 2.3536444 -10.834854
-254.7737 2.3536444 -10.925177
-254.7541 2.4358344 -10.951988
-254.87727 2.4358344 -11.038232
-254.86201 2.5201406 -11.060982
-254.98949 2.5201406 -11.142792
-254.97827 2.6061521 -11.161069
-255.10966 2.6061521 -11.238116
-255.10216 2.6934502 -11.251549
-255.23711 2.6934502 -11.323534
-254.53421 1.6002001 -8.701293
-254.51653 1.6009736 -8.7887077
-254.47054 1.6071572 -8.9187355
-254.43176 1.6194942 -9.0535345
-254.40092 1.6379244 -9.1925154
-254.37862 1.6623582 -9.3350143
-254.36542 1.6926765 -9.4803019
-254.36177 1.7287315 -9.6275864
-254.36812 1.7703477 -9.7760229
-254.38477 1.8173223 -9.9247246
-254.41193 1.8694264 -10.07277
-254.44975 1.926406 -10.219212
-254.49828 1.9879838 -10.363089
-254.55742 2.0538597 -10.503436
-254.62706 2.1237128 -10.639295
-254.70689 2.1972024 -10.769721
-254.79662 2.2739711 -10.8938
-254.89577 2.3536444 -11.010652
-255.00381 2.4358344 -11.119445
-255.12015 2.5201406 -11.219401
-255.24406 2.6061521 -11.30981
-255.37483 2.6934502 -11.390027
-254.5746 1.6002001 -8.8192358
-254.55278 1.6009736 -8.8862715
-254.51205 1.6071572 -9.0180454
-254.47876 1.6194942 -9.1542959
-254.45354 1.6379244 -9.2944059
-254.43698 1.6623582 -9.4376879
-254.42964 1.6926765 -9.5833893
-254.43193 1.7287315 -9.7307005
-254.44426 1.7703477 -9.8787613
-254.46687 1.8173223 -10.026672
-254.49997 1.8694264 -10.173504
-254.54367 1.926406 -10.318303
-254.59793 1.9879838 -10.460111
-254.66269 2.0538597 -10.597962
-254.73773 2.1237128 -10.730906
-254.82277 2.1972024 -10.858012
-254.9174 2.2739711 -10.978378
-255.02118 2.3536444 -11.091143
-255.13351 2.4358344 -11.195498
-255.25378 2.5201406 -11.290689
-255.38124 2.6061521 -11.376033
-255.51514 2.6934502 -11.45092
-254.62074 1.6002001 -8.9350557
-254.59294 1.6009736 -8.982296
-254.55756 1.6071572 -9.1156034
-254.52975 1.6194942 -9.2530842
-254.51019 1.6379244 -9.3940954
-254.49944 1.6623582 -9.5379276
-254.49796 1.6926765 -9.6838074
-254.50618 1.7287315 -9.8309059
-254.52446 1.7703477 -9.9783506
-254.55301 1.8173223 -10.125231
-254.592 1.8694264 -10.27061
-254.64148 1.926406 -10.413534
-254.70143 1.9879838 -10.553041
-254.77168 2.0538597 -10.688173
-254.85201 2.1237128 -10.817988
-254.94209 2.1972024 -10.941566
-255.0415 2.2739711 -11.058023
-255.14973 2.3536444 -11.166519
-255.26619 2.4358344 -11.266265
-255.39018 2.5201406 -11.356537
-255.52098 2.6061521 -11.43668
-255.65778 2.6934502 -11.506115
-254.6725 1.6002001 -9.0484715
-254.63693 1.6009736 -9.0766249
-254.60693 1.6071572 -9.2112494
-254.5847 1.6194942 -9.3497381
-254.57083 1.6379244 -9.4914227
-254.56587 1.6623582 -9.6355724
-254.57027 1.6926765 -9.7813921
-254.58441 1.7287315 -9.9280405
-254.60861 1.7703477 -10.07463
-254.64305 1.8173223 -10.220242
-254.68787 1.8694264 -10.363933
-254.74306 1.926406 -10.504747
-254.80856 1.9879838 -10.641728
-254.8842 2.0538597 -10.773922
-254.9697 2.1237128 -10.900397
-255.0647 2.1972024 -11.020248
-255.16872 2.2739711 -11.132607
-255.28122 2.3536444 -11.236657
-255.4016 2.4358344 -11.331634
-255.52913 2.5201406 -11.41684
-255.66304 2.6061521 -11.49165
-255.80252 2.6934502 -11.555521
-254.68468 1.6009736 -9.1691074
-254.72977 1.6002001 -9.1592112
-254.73611 1.6009736 -9.2595911
-254.79239 1.6002001 -9.2670078
-254.79114 1.6009736 -9.3479319
-254.86023 1.6002001 -9.3716021
-254.84969 1.6009736 -9.4339838
-254.93312 1.6002001 -9.4727402
-254.91167 1.6009736 -9.5176086
-255.01089 1.6002001 -9.5701809
-254.97694 1.6009736 -9.59867
-255.04544 1.6009736 -9.6770382
-254.98004 1.6071572 -9.7365608
-255.05408 1.6071572 -9.8146915
-254.99159 1.6194942 -9.8763447
-255.07126 1.6194942 -9.9538965
-255.01204 1.6379244 -10.017231
-255.09737 1.6379244 -10.093846
-255.04172 1.6623582 -10.158381
-255.13269 1.6623582 -10.233685
-255.08089 1.6926765 -10.29891
-255.17749 1.6926765 -10.372525
-255.12971 1.7287315 -10.437912
-255.23187 1.7287315 -10.509447
-255.18828 1.7703477 -10.574452
-255.2959 1.7703477 -10.643518
-255.25658 1.8173223 -10.707589
-255.36949 1.8173223 -10.773798
-255.33447 1.8694264 -10.83638
-255.45251 1.8694264 -10.899348
-255.42177 1.926406 -10.959893
-255.54471 1.926406 -11.019246
-255.51816 1.9879838 -11.077217
-255.64574 1.9879838 -11.132593
-255.62323 2.0538597 -11.187469
-255.75517 2.0538597 -11.238524
-255.73651 2.1237128 -11.289808
-255.87248 2.1237128 -11.336219
-255.85742 2.1972024 -11.383444
-255.99706 2.1972024 -11.424911
-255.98531 2.2739711 -11.467646
-256.12823 2.2739711 -11.503895
-256.11945 2.3536444 -11.541746
-256.26526 2.3536444 -11.572534
-256.25903 2.4358344 -11.605156
-256.40729 2.4358344 -11.630271
-256.40326 2.5201406 -11.657366
-256.5535 2.5201406 -11.676631
-256.55121 2.6061521 -11.697953
-256.70294 2.6061521 -11.711229
-256.7019 2.6934502 -11.726587
-256.85468 2.6934502 -11.733771
-255.09335 1.6002001 -9.6636877
-255.11703 1.6009736 -9.7525835
-255.13121 1.6071572 -9.8897772
-255.15398 1.6194942 -10.028178
-255.1857 1.6379244 -10.166964
-255.22664 1.6623582 -10.305266
-255.27698 1.6926765 -10.442189
-255.33684 1.7287315 -10.576811
-255.4062 1.7703477 -10.708196
-255.48499 1.8173223 -10.835405
-255.573 1.8694264 -10.957511
-255.66995 1.926406 -11.0736
-255.77547 1.9879838 -11.182786
-255.88907 2.0538597 -11.284225
-256.01022 2.1237128 -11.377118
-256.13828 2.1972024 -11.460722
-256.27252 2.2739711 -11.534359
-256.41217 2.3536444 -11.597425
-256.55643 2.4358344 -11.649396
-256.70438 2.5201406 -11.689832
-256.8551 2.6061521 -11.718384
-257.00763 2.6934502 -11.734798
-255.1803 1.6002001 -9.7530355
-255.1916 1.6009736 -9.8251858
-255.2113 1.6071572 -9.9616966
-255.23962 1.6194942 -10.099069
-255.2769 1.6379244 -10.236465
-255.32338 1.6623582 -10.373007
-255.3792 1.6926765 -10.507792
-255.44443 1.7287315 -10.639894
-255.51903 1.7703477 -10.768378
-255.60287 1.8173223 -10.892313
-255.69572 1.8694264 -11.010776
-255.79727 1.926406 -11.122867
-255.90709 1.9879838 -11.227716
-256.02469 2.0538597 -11.324498
-256.14948 2.1237128 -11.412437
-256.28079 2.1972024 -11.490817
-256.41791 2.2739711 -11.55899
-256.56 2.3536444 -11.616381
-256.70621 2.4358344 -11.662501
-256.85568 2.5201406 -11.696947
-257.00742 2.6061521 -11.719406
-257.16049 2.6934502 -11.729666
-255.27151 1.6002001 -9.8380108
-255.26904 1.6009736 -9.8947258
-255.29422 1.6071572 -10.030334
-255.32806 1.6194942 -10.166453
-255.37083 1.6379244 -10.302237
-255.42278 1.6623582 -10.436797
-255.48398 1.6926765 -10.569224
-255.55447 1.7287315 -10.698593
-255.63419 1.7703477 -10.82397
-255.72295 1.8173223 -10.944427
-255.8205 1.8694264 -11.059055
-255.92647 1.926406 -11.166966
-256.04044 1.9879838 -11.267309
-256.16183 2.0538597 -11.359278
-256.29007 2.1237128 -11.442121
-256.42441 2.1972024 -11.515149
-256.56415 2.2739711 -11.577745
-256.70844 2.3536444 -11.629369
-256.85641 2.4358344 -11.669564
-257.00714 2.5201406 -11.697964
-257.15967 2.6061521 -11.714294
-257.31302 2.6934502 -11.718382
-255.36681 1.6002001 -9.9184065
-255.34923 1.6009736 -9.961091
-255.37984 1.6071572 -10.095575
-255.41913 1.6194942 -10.230223
-255.46735 1.6379244 -10.364173
-255.52464 1.6623582 -10.496533
-255.59114 1.6926765 -10.626389
-255.66678 1.7287315 -10.752813
-255.75148 1.7703477 -10.874879
-255.84502 1.8173223 -10.991666
-255.94711 1.8694264 -11.102272
-256.05734 1.926406 -11.205829
-256.17526 1.9879838 -11.301501
-256.30026 2.0538597 -11.388507
-256.4317 2.1237128 -11.46612
-256.56891 2.1972024 -11.533678
-256.71106 2.2739711 -11.590597
-256.8573 2.3536444 -11.636369
-257.00677 2.4358344 -11.670573
-257.15851 2.5201406 -11.692881
-257.31158 2.6061521 -11.703057
-257.46497 2.6934502 -11.700966
-255.46591 1.6002001 -9.994031
-255.43201 1.6009736 -10.024175
-255.46802 1.6071572 -10.157316
-255.5127 1.6194942 -10.290273
-255.56625 1.6379244 -10.422174
-255.62885 1.6623582 -10.552118
-255.70052 1.6926765 -10.679192
-255.78119 1.7287315 -10.802468
-255.87073 1.7703477 -10.921024
-255.9689 1.8173223 -11.033949
-256.07535 1.8694264 -11.140356
-256.18967 1.926406 -11.239388
-256.31134 1.9879838 -11.330236
-256.43976 2.0538597 -11.412138
-256.57422 2.1237128 -11.484395
-256.71402 2.1972024 -11.546374
-256.85834 2.2739711 -11.597524
-257.00632 2.3536444 -11.637369
-257.15704 2.4358344 -11.665527
-257.30957 2.5201406 -11.681706
-257.46292 2.6061521 -11.685712
-257.61609 2.6934502 -11.677445
-255.51727 1.6009736 -10.083873
-255.56862 1.6002001 -10.0647
-255.60486 1.6009736 -10.14009
-255.67467 1.6002001 -10.130245
-255.69466 1.6009736 -10.192735
-255.78381 1.6002001 -10.190508
-255.78648 1.6009736 -10.241721
-255.89577 1.6002001 -10.245342
-255.88022 1.6009736 -10.28697
-255.97569 1.6009736 -10.328408
-255.94212 1.6071572 -10.410219
-256.04251 1.6071572 -10.449064
-256.01248 1.6194942 -10.531552
-256.11771 1.6194942 -10.567467
-256.09137 1.6379244 -10.650073
-256.20129 1.6379244 -10.682714
-256.17868 1.6623582 -10.764873
-256.29315 1.6623582 -10.793905
-256.27432 1.6926765 -10.875044
-256.39316 1.6926765 -10.900136
-256.37802 1.7287315 -10.979691
-256.50098 1.7287315 -11.000523
-256.48947 1.7703477 -11.07794
-256.6163 1.7703477 -11.094205
-256.60825 1.8173223 -11.168946
-256.73865 1.8173223 -11.180355
-256.73383 1.8694264 -11.251908
-256.86746 1.8694264 -11.258193
-256.86563 1.926406 -11.326074
-257.00217 1.926406 -11.32699
-257.00302 1.9879838 -11.39075
-257.14203 1.9879838 -11.386083
-257.1452 2.0538597 -11.445312
-257.28629 2.0538597 -11.434875
-257.29141 2.1237128 -11.489209
-257.43417 2.1237128 -11.472849
-257.4408 2.1972024 -11.521972
-257.58475 2.1972024 -11.499571
-257.59244 2.2739711 -11.54322
-257.73709 2.2739711 -11.514694
-257.74539 2.3536444 -11.552661
-257.89032 2.3536444 -11.517969
-257.89868 2.4358344 -11.550102
-258.0434 2.4358344 -11.509239
-258.05136 2.5201406 -11.535446
-258.19534 2.5201406 -11.488448
-258.20242 2.6061521 -11.508697
-258.34521 2.6061521 -11.455638
-258.35086 2.6934502 -11.469956
-258.49197 2.6934502 -11.410953
-256.01028 1.6002001 -10.294618
-256.07275 1.6009736 -10.365969
-256.14438 1.6071572 -10.483836
-256.22427 1.6194942 -10.599114
-256.31244 1.6379244 -10.710904
-256.40872 1.6623582 -10.818304
-256.51291 1.6926765 -10.920424
-256.62469 1.7287315 -11.016387
-256.74368 1.7703477 -11.10535
-256.86938 1.8173223 -11.186503
-257.00125 1.8694264 -11.25909
-257.13861 1.926406 -11.322409
-257.28073 1.9879838 -11.375822
-257.42685 2.0538597 -11.418765
-257.57614 2.1237128 -11.450754
-257.72766 2.1972024 -11.471391
-257.88052 2.2739711 -11.480368
-258.03372 2.3536444 -11.47747
-258.18634 2.4358344 -11.462584
-258.33734 2.5201406 -11.435691
-258.48575 2.6061521 -11.396873
-258.63058 2.6934502 -11.346314
-256.12708 1.6002001 -10.338214
-256.17126 1.6009736 -10.39959
-256.24759 1.6071572 -10.514478
-256.33206 1.6194942 -10.626445
-256.42462 1.6379244 -10.734594
-256.52515 1.6623582 -10.838032
-256.63336 1.6926765 -10.935872
-256.74893 1.7287315 -11.027257
-256.8714 1.7703477 -11.111356
-257.00027 1.8173223 -11.187382
-257.13495 1.8694264 -11.254601
-257.27475 1.926406 -11.312337
-257.41891 1.9879838 -11.359983
-257.56665 2.0538597 -11.397008
-257.7171 2.1237128 -11.42296
-257.86932 2.1972024 -11.43748
-258.02243 2.2739711 -11.440294
-258.17538 2.3536444 -11.43123
-258.32727 2.4358344 -11.410211
-258.47708 2.5201406 -11.377259
-258.62381 2.6061521 -11.332498
-258.76648 2.6934502 -11.276147
-256.24588 1.6002001 -10.376026
-256.27103 1.6009736 -10.429217
-256.35193 1.6071572 -10.540939
-256.44083 1.6194942 -10.649414
-256.53769 1.6379244 -10.753748
-256.6423 1.6623582 -10.853054
-256.75436 1.6926765 -10.946458
-256.8735 1.7287315 -11.033115
-256.99927 1.7703477 -11.112214
-257.1311 1.8173223 -11.182989
-257.26837 1.8694264 -11.244731
-257.41037 1.926406 -11.296792
-257.55637 1.9879838 -11.338594
-257.70544 2.0538597 -11.36964
-257.85681 2.1237128 -11.389514
-258.00952 2.1972024 -11.397891
-258.1626 2.2739711 -11.394539
-258.31509 2.3536444 -11.379322
-258.466 2.4358344 -11.352204
-258.61435 2.5201406 -11.313248
-258.75916 2.6061521 -11.262614
-258.89944 2.6934502 -11.200564
-256.36639 1.6002001 -10.407965
-256.37192 1.6009736 -10.454803
-256.45724 1.6071572 -10.563178
-256.55045 1.6194942 -10.667984
-256.65143 1.6379244 -10.768334
-256.75995 1.6623582 -10.863347
-256.87567 1.6926765 -10.952164
-256.99823 1.7287315 -11.033953
-257.12708 1.7703477 -11.107923
-257.26166 1.8173223 -11.173332
-257.40131 1.8694264 -11.229497
-257.54529 1.926406 -11.275797
-257.69281 1.9879838 -11.311688
-257.84305 2.0538597 -11.336705
-257.99509 2.1237128 -11.350469
-258.14801 2.1972024 -11.35269
-258.30081 2.2739711 -11.343177
-258.45258 2.3536444 -11.321833
-258.60226 2.4358344 -11.28866
-258.74893 2.5201406 -11.243761
-258.89157 2.6061521 -11.187339
-259.02927 2.6934502 -11.11969
-256.48831 1.6002001 -10.433951
-256.47375 1.6009736 -10.476307
-256.56335 1.6071572 -10.581158
-256.66074 1.6194942 -10.682126
-256.76566 1.6379244 -10.778328
-256.87793 1.6623582 -10.868895
-256.99713 1.6926765 -10.952978
-257.12286 1.7287315 -11.029767
-257.25461 1.7703477 -11.09849
-257.39169 1.8173223 -11.158427
-257.53348 1.8694264 -11.208923
-257.67923 1.926406 -11.249388
-257.82809 1.9879838 -11.279309
-257.97922 2.0538597 -11.298256
-258.13168 2.1237128 -11.305886
-258.28455 2.1972024 -11.30195
-258.43686 2.2739711 -11.28629
-258.58765 2.3536444 -11.258853
-258.73587 2.4358344 -11.21968
-258.88062 2.5201406 -11.168912
-259.02087 2.6061521 -11.106791
-259.15573 2.6934502 -11.033653
-256.57639 1.6009736 -10.493691
-256.61139 1.6002001 -10.453924
-256.67963 1.6009736 -10.50693
-256.73526 1.6002001 -10.467834
-256.78329 1.6009736 -10.516002
-256.85971 1.6002001 -10.475649
-256.88727 1.6009736 -10.520891
-256.98434 1.6002001 -10.477349
-256.99133 1.6009736 -10.521589
-257.09537 1.6009736 -10.518097
-257.1001 1.6071572 -10.606398
-257.20746 1.6071572 -10.598456
-257.2157 1.6194942 -10.685851
-257.32614 1.6194942 -10.673192
-257.33777 1.6379244 -10.759119
-257.45108 1.6379244 -10.741485
-257.46585 1.6623582 -10.825401
-257.58173 1.6623582 -10.802555
-257.59949 1.6926765 -10.88394
-257.71762 1.6926765 -10.855665
-257.73804 1.7287315 -10.934026
-257.85806 1.7287315 -10.900132
-257.88086 1.7703477 -10.975011
-258.00241 1.7703477 -10.935334
-258.02716 1.8173223 -11.006314
-258.14987 1.8173223 -10.96072
-258.17621 1.8694264 -11.027427
-258.29962 1.8694264 -10.975815
-258.32709 1.926406 -11.037924
-258.45081 1.926406 -10.980227
-258.47891 1.9879838 -11.037464
-258.60251 1.9879838 -10.973655
-258.63077 2.0538597 -11.025801
-258.75378 2.0538597 -10.955886
-258.78168 2.1237128 -11.002778
-258.90363 2.1237128 -10.926805
-258.93069 2.1972024 -10.968342
-259.05112 2.1972024 -10.886397
-259.07678 2.2739711 -10.922532
-259.19528 2.2739711 -10.834742
-259.21902 2.3536444 -10.865491
-259.33508 2.3536444 -10.772019
-259.35645 2.4358344 -10.797458
-259.46964 2.4358344 -10.698508
-259.4881 2.5201406 -10.718766
-259.59802 2.5201406 -10.61458
-259.6131 2.6061521 -10.629846
-259.71933 2.6061521 -10.520698
-259.73059 2.6934502 -10.531211
-259.83276 2.6934502 -10.417413
-257.10895 1.6002001 -10.47293
-257.19916 1.6009736 -10.510418
-257.31439 1.6071572 -10.5862
-257.436 1.6194942 -10.656095
-257.56357 1.6379244 -10.719302
-257.69659 1.6623582 -10.775062
-257.8345 1.6926765 -10.822658
-257.97662 1.7287315 -10.861433
-258.12228 1.7703477 -10.890794
-258.27063 1.8173223 -10.910221
-258.42087 1.8694264 -10.919274
-258.57211 1.926406 -10.917596
-258.72342 1.9879838 -10.90492
-258.87384 2.0538597 -10.881075
-259.02243 2.1237128 -10.845984
-259.16818 2.1972024 -10.799669
-259.31012 2.2739711 -10.742251
-259.4473 2.3536444 -10.67395
-259.5788 2.4358344 -10.595081
-259.70367 2.5201406 -10.506051
-259.82111 2.6061521 -10.40736
-259.9303 2.6934502 -10.299591
-257.23318 1.6002001 -10.462403
-257.30258 1.6009736 -10.498567
-257.42078 1.6071572 -10.569646
-257.54507 1.6194942 -10.634587
-257.67508 1.6379244 -10.692608
-257.81024 1.6623582 -10.742966
-257.94995 1.6926765 -10.78497
-258.09354 1.7287315 -10.81799
-258.24023 1.7703477 -10.841464
-258.38928 1.8173223 -10.854901
-258.53976 1.8694264 -10.857897
-258.6908 1.926406 -10.85013
-258.84149 1.9879838 -10.831372
-258.99081 2.0538597 -10.80149
-259.13785 2.1237128 -10.760445
-259.28162 2.1972024 -10.708299
-259.42114 2.2739711 -10.645212
-259.55545 2.3536444 -10.571443
-259.68369 2.4358344 -10.487343
-259.80487 2.5201406 -10.393356
-259.91824 2.6061521 -10.290017
-260.02301 2.6934502 -10.177938
-257.35672 1.6002001 -10.445793
-257.40543 1.6009736 -10.482561
-257.52637 1.6071572 -10.548823
-257.6532 1.6194942 -10.608706
-257.78543 1.6379244 -10.661445
-257.92252 1.6623582 -10.70632
-258.06381 1.6926765 -10.742664
-258.20859 1.7287315 -10.769876
-258.35614 1.7703477 -10.787423
-258.50558 1.8173223 -10.794849
-258.65607 1.8694264 -10.791783
-258.80667 1.926406 -10.777941
-258.95648 1.9879838 -10.753131
-259.10449 2.0538597 -10.717258
-259.24976 2.1237128 -10.670326
-259.3913 2.1972024 -10.612434
-259.52817 2.2739711 -10.543781
-259.65942 2.3536444 -10.464664
-259.78412 2.4358344 -10.375468
-259.90146 2.5201406 -10.276678
-260.01056 2.6061521 -10.168858
-260.11072 2.6934502 -10.052652
-257.47931 1.6002001 -10.423141
-257.50754 1.6009736 -10.462427
-257.63107 1.6071572 -10.523765
-257.76019 1.6194942 -10.578492
-257.89444 1.6379244 -10.625864
-258.03323 1.6623582 -10.665182
-258.17587 1.6926765 -10.695808
-258.32162 1.7287315 -10.717169
-258.46976 1.7703477 -10.728761
-258.61938 1.8173223 -10.730164
-258.76962 1.8694264 -10.72104
-258.91956 1.926406 -10.701144
-259.06824 1.9879838 -10.670322
-259.21469 2.0538597 -10.628519
-259.35794 2.1237128 -10.575776
-259.49704 2.1972024 -10.512231
-259.63104 2.2739711 -10.438123
-259.75897 2.3536444 -10.353785
-259.88 2.4358344 -10.259641
-259.99326 2.5201406 -10.156206
-260.09793 2.6061521 -10.044079
-260.19333 2.6934502 -9.9239349
-257.60065 1.6002001 -10.394501
-257.60873 1.6009736 -10.438197
-257.73465 1.6071572 -10.494512
-257.86591 1.6194942 -10.543994
-258.00195 1.6379244 -10.585922
-258.14218 1.6623582 -10.619621
-258.28595 1.6926765 -10.644479
-258.43246 1.7287315 -10.659952
-258.58093 1.7703477 -10.66557
-258.73047 1.8173223 -10.660947
-258.88022 1.8694264 -10.645782
-259.02924 1.926406 -10.619864
-259.17654 1.9879838 -10.583081
-259.3212 2.0538597 -10.535416
-259.46222 2.1237128 -10.476946
-259.59866 2.1972024 -10.407852
-259.72955 2.2739711 -10.328408
-259.854 2.3536444 -10.238986
-259.97113 2.4358344 -10.140045
-260.08014 2.5201406 -10.032135
-260.18021 2.6061521 -9.9158831
-260.27069 2.6934502 -9.791996
-257.70892 1.6009736 -10.409912
-257.72043 1.6002001 -10.359941
-257.80786 1.6009736 -10.377616
-257.83838 1.6002001 -10.319546
-257.90543 1.6009736 -10.341363
-257.95419 1.6002001 -10.273412
-258.00143 1.6009736 -10.301209
-258.06763 1.6002001 -10.22165
-258.09576 1.6009736 -10.257223
-258.18826 1.6009736 -10.209474
-258.23041 1.6071572 -10.287215
-258.32397 1.6071572 -10.23402
-258.3689 1.6194942 -10.309446
-258.46326 1.6194942 -10.250657
-258.51056 1.6379244 -10.323313
-258.60538 1.6379244 -10.258808
-258.65472 1.6623582 -10.328279
-258.7496 1.6623582 -10.257965
-258.80054 1.6926765 -10.32388
-258.89514 1.6926765 -10.247699
-258.94717 1.7287315 -10.309733
-259.04111 1.7287315 -10.227659
-259.09378 1.7703477 -10.285542
-259.18658 1.7703477 -10.197584
-259.23938 1.8173223 -10.251097
-259.33069 1.8173223 -10.157303
-259.38309 1.8694264 -10.206284
-259.47247 1.8694264 -10.106741
-259.5239 1.926406 -10.151084
-259.61093 1.926406 -10.045917
-259.66089 1.9879838 -10.085578
-259.74518 1.9879838 -9.974947
-259.79306 2.0538597 -10.00994
-259.87421 2.0538597 -9.8940487
-259.91956 2.1237128 -9.9244452
-259.99716 2.1237128 -9.8035297
-260.0394 2.1972024 -9.8294582
-260.11307 2.1972024 -9.7037945
-260.15176 2.2739711 -9.7254381
-260.22116 2.2739711 -9.5953341
-260.2558 2.3536444 -9.6129293
-260.32059 2.3536444 -9.4787264
-260.35077 2.4358344 -9.4925585
-260.41064 2.4358344 -9.3546286
-260.43597 2.5201406 -9.3650265
-260.49066 2.5201406 -9.2237701
-260.5108 2.6061521 -9.2311049
-260.56 2.6061521 -9.0869446
-260.57468 2.6934502 -9.0916224
-260.61819 2.6934502 -8.9450035
-258.17834 1.6002001 -10.164386
-258.27875 1.6009736 -10.15804
-258.41534 1.6071572 -10.177101
-258.55518 1.6194942 -10.188117
-258.69751 1.6379244 -10.190537
-258.84158 1.6623582 -10.183888
-258.98657 1.6926765 -10.16777
-259.13162 1.7287315 -10.14187
-259.27579 1.7703477 -10.10596
-259.41815 1.8173223 -10.05991
-259.55777 1.8694264 -10.003679
-259.6937 1.926406 -9.9373283
-259.82495 1.9879838 -9.8610125
-259.95062 2.0538597 -9.7749834
-260.06982 2.1237128 -9.6795874
-260.18164 2.1972024 -9.5752649
-260.28528 2.2739711 -9.4625406
-260.37991 2.3536444 -9.3420238
-260.4649 2.4358344 -9.2144012
-260.53958 2.5201406 -9.0804272
-260.60336 2.6061521 -8.9409199
-260.65579 2.6934502 -8.7967501
-258.28616 1.6002001 -10.101757
-258.36707 1.6009736 -10.103004
-258.50433 1.6071572 -10.116549
-258.6445 1.6194942 -10.121925
-258.7868 1.6379244 -10.118613
-258.93051 1.6623582 -10.106168
-259.07474 1.6926765 -10.084224
-259.21863 1.7287315 -10.052505
-259.36121 1.7703477 -10.010819
-259.50162 1.8173223 -9.959074
-259.63885 1.8694264 -9.8972673
-259.772 1.926406 -9.8254967
-259.90009 1.9879838 -9.7439575
-260.02219 2.0538597 -9.6529369
-260.13745 2.1237128 -9.5528202
-260.24496 2.1972024 -9.4440794
-260.34396 2.2739711 -9.3272743
-260.43372 2.3536444 -9.2030439
-260.51349 2.4358344 -9.0721025
-260.5827 2.5201406 -8.9352303
-260.64081 2.6061521 -8.7932673
-260.68741 2.6934502 -8.6471033
-258.39075 1.6002001 -10.033915
-258.45312 1.6009736 -10.044455
-258.59082 1.6071572 -10.052463
-258.73108 1.6194942 -10.052191
-258.87317 1.6379244 -10.043151
-259.01624 1.6623582 -10.024929
-259.15945 1.6926765 -9.9971962
-259.30194 1.7287315 -9.9597092
-259.44275 1.7703477 -9.9123154
-259.58096 1.8173223 -9.8549585
-259.71561 1.8694264 -9.7876759
-259.84573 1.926406 -9.7106037
-259.97043 1.9879838 -9.6239719
-260.08878 2.0538597 -9.5281086
-260.19989 2.1237128 -9.4234324
-260.30298 2.1972024 -9.3104506
-260.39719 2.2739711 -9.1897535
-260.48184 2.3536444 -9.0620108
-260.55627 2.4358344 -8.9279633
-260.61993 2.5201406 -8.788415
-260.67227 2.6061521 -8.644227
-260.71295 2.6934502 -8.4963055
-258.49188 1.6002001 -9.9610214
-258.53674 1.6009736 -9.9824886
-258.67465 1.6071572 -9.9849463
-258.81479 1.6194942 -9.9790268
-258.95639 1.6379244 -9.9642725
-259.09863 1.6623582 -9.9403048
-259.2406 1.6926765 -9.906827
-259.38147 1.7287315 -9.8636332
-259.52026 1.7703477 -9.8106089
-259.65604 1.8173223 -9.7477331
-259.78787 1.8694264 -9.6750841
-259.91479 1.926406 -9.5928335
-260.03589 1.9879838 -9.5012512
-260.1503 2.0538597 -9.4007006
-260.25711 2.1237128 -9.2916346
-260.35553 2.1972024 -9.1745939
-260.44482 2.2739711 -9.0502014
-260.52426 2.3536444 -8.9191532
-260.59323 2.4358344 -8.782218
-260.65121 2.5201406 -8.6402197
-260.69772 2.6061521 -8.4940405
-260.73239 2.6934502 -8.3446016
-258.58932 1.6002001 -9.8832531
-258.61783 1.6009736 -9.9172058
-258.75571 1.6071572 -9.9141083
-258.89551 1.6194942 -9.9025507
-259.03638 1.6379244 -9.8821077
-259.17752 1.6623582 -9.8524323
-259.31805 1.6926765 -9.8132639
-259.45706 1.7287315 -9.7644339
-259.5936 1.7703477 -9.705863
-259.72675 1.8173223 -9.6375713
-259.85553 1.8694264 -9.5596733
-259.97903 1.926406 -9.4723787
-260.09637 1.9879838 -9.3759947
-260.2066 2.0538597 -9.2709188
-260.30896 2.1237128 -9.1576405
-260.40259 2.1972024 -9.0367317
-260.48679 2.2739711 -8.908844
-260.56088 2.3536444 -8.774704
-260.6243 2.4358344 -8.6351013
-260.67651 2.5201406 -8.4908848
-260.7171 2.6061521 -8.3429508
-260.74573 2.6934502 -8.1922369
-258.6962 1.6009736 -9.848712
-258.68283 1.6002001 -9.8007975
-258.77173 1.6009736 -9.7771177
-258.77219 1.6002001 -9.7138529
-258.84433 1.6009736 -9.7025394
-258.85715 1.6002001 -9.6226292
-258.91388 1.6009736 -9.6250982
-258.93756 1.6002001 -9.5273457
-258.98022 1.6009736 -9.5449209
-259.01318 1.6002001 -9.4282322
-259.04333 1.6009736 -9.4621353
-259.10303 1.6009736 -9.3768768
-259.17645 1.6071572 -9.4261284
-259.23462 1.6071572 -9.3355379
-259.30942 1.6194942 -9.3814545
-259.36566 1.6194942 -9.2855463
-259.44131 1.6379244 -9.3278885
-259.4953 1.6379244 -9.2267132
-259.57126 1.6623582 -9.265296
-259.62262 1.6623582 -9.1589394
-259.69833 1.6926765 -9.193635
-259.7467 1.6926765 -9.0822201
-259.82162 1.7287315 -9.1129589
-259.86664 1.7287315 -8.996645
-259.94019 1.7703477 -9.0234137
-259.98148 1.7703477 -8.9023991
-260.0531 1.8173223 -8.9252453
-260.09036 1.8173223 -8.7997627
-260.15952 1.8694264 -8.8187885
-260.19238 1.8694264 -8.6891079
-260.25854 1.926406 -8.7044716
-260.28674 1.926406 -8.5708961
-260.3494 1.9879838 -8.5828114
-260.37262 1.9879838 -8.4456758
-260.43127 2.0538597 -8.4544039
-260.44928 2.0538597 -8.3140755
-260.50354 2.1237128 -8.3199253
-260.51605 2.1237128 -8.176796
-260.56552 2.1972024 -8.1801214
-260.57236 2.1972024 -8.0346098
-260.61667 2.2739711 -8.0358
-260.61768 2.2739711 -7.8883457
-260.65652 2.3536444 -7.8878241
-260.65152 2.3536444 -7.7388854
-260.68466 2.4358344 -7.737103
-260.67358 2.4358344 -7.587153
-260.70087 2.5201406 -7.5845828
-260.68359 2.5201406 -7.4341049
-260.70486 2.6061521 -7.4312344
-260.68143 2.6061521 -7.2807198
-260.69659 2.6934502 -7.2780466
-260.66699 2.6934502 -7.1279888
-259.08386 1.6002001 -9.3255272
-259.15924 1.6009736 -9.2892838
-259.28906 1.6071572 -9.2426805
-259.41797 1.6194942 -9.1874523
-259.54514 1.6379244 -9.1234465
-259.66962 1.6623582 -9.050601
-259.79053 1.6926765 -8.9689474
-259.90692 1.7287315 -8.8786125
-260.01788 1.7703477 -8.7798185
-260.12253 1.8173223 -8.6728811
-260.22003 1.8694264 -8.5582075
-260.30954 1.926406 -8.4362926
-260.39032 1.9879838 -8.3077164
-260.46161 2.0538597 -8.1731358
-260.52283 2.1237128 -8.0332785
-260.57333 2.1972024 -7.8889408
-260.6127 2.2739711 -7.7409716
-260.64053 2.3536444 -7.5902691
-260.65646 2.4358344 -7.4377713
-260.66031 2.5201406 -7.2844434
-260.65198 2.6061521 -7.1312704
-260.63141 2.6934502 -6.9792442
-259.14938 1.6002001 -9.2194786
-259.21188 1.6009736 -9.1994982
-259.33972 1.6071572 -9.1477051
-259.46631 1.6194942 -9.0873308
-259.59079 1.6379244 -9.0182571
-259.71225 1.6623582 -8.9404573
-259.82977 1.6926765 -8.854002
-259.94241 1.7287315 -8.7590542
-260.04932 1.7703477 -8.6558723
-260.14957 1.8173223 -8.5448074
-260.24237 1.8694264 -8.426301
-260.3269 1.926406 -8.3008814
-260.40244 1.9879838 -8.169157
-260.46826 2.0538597 -8.0318136
-260.52377 2.1237128 -7.889606
-260.56845 2.1972024 -7.7433505
-260.60184 2.2739711 -7.5939159
-260.62357 2.3536444 -7.4422164
-260.63333 2.4358344 -7.2892003
-260.63101 2.5201406 -7.1358414
-260.61652 2.6061521 -6.9831285
-260.58984 2.6934502 -6.8320541
-259.20966 1.6002001 -9.1103411
-259.26086 1.6009736 -9.1076651
-259.38651 1.6071572 -9.0507679
-259.51059 1.6194942 -8.9853439
-259.63217 1.6379244 -8.911314
-259.7504 1.6623582 -8.8286867
-259.86435 1.6926765 -8.7375698
-259.97308 1.7287315 -8.6381636
-260.07571 1.7703477 -8.5307608
-260.17145 1.8173223 -8.4157486
-260.2594 1.8694264 -8.293602
-260.33881 1.926406 -8.1648798
-260.40897 1.9879838 -8.030221
-260.46921 2.0538597 -7.8903389
-260.51895 2.1237128 -7.7460113
-260.55771 2.1972024 -7.5980754
-260.58505 2.2739711 -7.4474177
-260.60065 2.3536444 -7.2949667
-260.60425 2.4358344 -7.1416807
-260.59576 2.5201406 -6.9885397
-260.5751 2.6061521 -6.836535
-260.54239 2.6934502 -6.686657
-259.2645 1.6002001 -8.9983788
-259.30612 1.6009736 -9.0139351
-259.42938 1.6071572 -8.9520235
-259.55069 1.6194942 -8.8816576
-259.66922 1.6379244 -8.8027916
-259.78403 1.6623582 -8.7154713
-259.8942 1.6926765 -8.6198406
-259.99884 1.7287315 -8.5161362
-260.09708 1.7703477 -8.4046869
-260.18808 1.8173223 -8.2859135
-260.27106 1.8694264 -8.1603241
-260.34521 1.926406 -8.0285091
-260.40991 1.9879838 -7.8911352
-260.46445 2.0538597 -7.7489405
-260.50836 2.1237128 -7.6027269
-260.54111 2.1972024 -7.4533505
-260.56238 2.2739711 -7.3017144
-260.57181 2.3536444 -7.1487589
-260.56924 2.4358344 -6.9954519
-260.5546 2.5201406 -6.8427773
-260.52783 2.6061521 -6.6917272
-260.48911 2.6934502 -6.5432887
-259.34756 1.6009736 -8.918458
-259.31375 1.6002001 -8.8838606
-259.38513 1.6009736 -8.8213902
-259.35736 1.6002001 -8.7670622
-259.41873 1.6009736 -8.7228889
