# .PCD v0.7 - Point Cloud Data file format
VERSION 0.7
FIELDS x y z normal_x normal_y normal_z curvature
SIZE 4 4 4 4 4 4 4
TYPE F F F F F F F
COUNT 1 1 1 1 1 1 1
WIDTH 688
HEIGHT 1
VIEWPOINT 0 0 0 1 0 0 0
POINTS 688
DATA ascii
-227.86151 -180.52533 -30.908382 -0.97268772 2.902899e-15 -0.23211768 0
-229.70261 -178.72377 -30.791183 -0.97268772 2.8816091e-15 -0.23211768 0
-226.77229 -181.51749 -31.1959 -0.97268772 1.2687326e-15 -0.23211768 0
-230.72731 -177.79465 -30.451735 -0.9808647 3.9645784e-15 -0.19469075 0
-232.84569 -175.82726 -29.845518 -0.98760211 1.3173974e-16 -0.15697809 0
-229.27811 -179.47398 -29.462584 -0.99289006 -0 -0.11903504 0
-231.55019 -177.27995 -29.002193 -0.99289006 -0 -0.11903504 0
-227.9162 -180.828 -29.509228 -0.99289006 -0 -0.11903504 0
-235.76976 -173.10205 -28.648415 -0.99672079 -0 -0.080917284 0
-230.52444 -178.31387 -28.940384 -0.99672079 -0 -0.080917284 0
-233.9055 -175.01312 -28.118462 -0.99908876 2.3879144e-17 -0.04268077 0
-232.90977 -175.99927 -28.276653 -0.99908876 2.3879144e-17 -0.04268077 0
-228.42889 -180.49161 -28.087429 -0.99908876 1.3933147e-15 -0.04268077 0
-229.72072 -179.20462 -28.00699 -0.99908876 1.3430227e-15 -0.04268077 0
-227.42836 -181.48906 -28.138578 -0.99908876 1.514278e-15 -0.04268077 0
-231.78171 -177.15987 -27.47061 -0.9999904 4.4770426e-15 -0.0043816213 0
-230.78838 -178.15451 -27.257441 -0.9999904 2.6422666e-15 -0.0043816213 0
-232.85779 -176.07179 -26.870661 -0.9994244 -9.4899305e-18 0.033923961 0
-228.08382 -180.83803 -26.709295 -0.9994244 -9.4899305e-18 0.033923961 0
-229.16045 -179.75644 -26.60515 -0.9994244 -9.4899305e-18 0.033923961 0
-233.924 -174.88393 -25.66334 -0.99389505 0 0.11032961 0
-230.89713 -177.94089 -25.854979 -0.99389505 0 0.11032961 0
-234.87289 -173.89217 -25.390347 -0.99389505 9.8248721e-17 0.11032961 0
-231.85718 -176.89088 -25.29711 -0.98893976 4.4263557e-15 0.14831755 0
-229.12318 -179.61246 -25.238501 -0.98893976 4.4263557e-15 0.14831755 0
-230.00343 -178.66179 -24.906513 -0.98893976 2.7775805e-15 0.14831755 0
-232.56776 -176.00984 -24.544371 -0.9825331 -1.561693e-16 0.1860878 0
-230.8858 -177.62959 -24.312159 -0.9825331 -1.0454679e-16 0.1860878 0
-234.11217 -174.367 -24.177095 -0.9825331 -1.3274047e-16 0.1860878 0
-228.01686 -180.44949 -24.131182 -0.97468442 6.2545932e-17 0.22358495 0
-226.83287 -181.62531 -24.105894 -0.97468442 5.9951073e-17 0.22358495 0
-229.82941 -178.44301 -23.535475 -0.96540529 0 0.26075396 0
-227.33047 -180.75096 -23.035397 -0.96540529 -1.7028978e-16 0.26075396 0
-234.49171 -173.549 -22.933067 -0.95470929 -2.4970285e-16 0.29754028 0
-232.66455 -175.26672 -22.684658 -0.95470929 -2.4970285e-16 0.29754028 0
-228.36893 -179.6172 -22.809095 -0.95470929 -2.3839036e-16 0.29754028 0
-231.0226 -176.86151 -22.577719 -0.95470929 -2.1415187e-16 0.29754028 0
-233.71466 -173.88876 -21.993502 -0.94261205 0 0.3338899 0
-231.39519 -175.99539 -21.594597 -0.92913145 -2.0686837e-16 0.36974952 0
-227.28957 -180.12331 -21.63422 -0.92913145 -1.7034355e-16 0.36974952 0
-229.83495 -177.41237 -21.340117 -0.92913145 -1.232839e-16 0.36974952 0
-228.56828 -178.54573 -21.117102 -0.91428727 0 0.40506646 0
-227.16634 -179.37071 -20.242661 -0.89810115 -2.460542e-16 0.43978891 0
-231.21802 -175.02829 -19.851139 -0.880597 -2.6511967e-16 0.47386593 0
-230.10696 -176.35541 -20.134996 -0.880597 -2.6511967e-16 0.47386593 0
-228.49358 -177.30435 -19.291044 -0.86180043 9.9853972e-16 0.50724745 0
-225.56096 -179.81967 -18.813313 -0.84173906 2.0970626e-15 0.53988457 0
-226.85957 -178.45502 -18.740526 -0.84173906 2.1232012e-15 0.53988457 0
-229.72389 -175.18356 -18.31337 -0.82044232 -1.5993626e-16 0.5717293 0
-230.94119 -173.6201 -17.970083 -0.79794151 -3.3721962e-16 0.60273492 0
-227.8598 -176.7509 -18.016348 -0.79794151 -3.3721962e-16 0.60273492 0
-232.69797 -171.93599 -18.038094 -0.79794151 -3.3721962e-16 0.60273492 0
-226.18777 -177.42651 -17.121216 -0.77426952 -2.1990877e-16 0.63285595 0
-224.68916 -179.25441 -17.406048 -0.77426952 -2.9413886e-16 0.63285595 0
-232.08719 -171.25172 -16.899792 -0.74946123 -1.8520218e-16 0.66204822 0
-229.30042 -174.08972 -16.940815 -0.74946123 -1.8520218e-16 0.66204822 0
-224.93976 -178.1147 -16.672112 -0.74946123 -1.8520218e-16 0.66204822 0
-227.52448 -175.18332 -16.413721 -0.72355306 2.6931497e-16 0.69026881 0
-229.13605 -173.00264 -16.008156 -0.69658291 3.318515e-15 0.71747631 0
-226.06609 -176.10986 -16.033701 -0.69658291 2.8569521e-15 0.71747631 0
-231.55644 -170.24672 -15.778538 -0.66859043 0 0.74363083 0
-227.80861 -173.64145 -15.554064 -0.66859043 1.2318078e-17 0.74363083 0
-226.40382 -174.72336 -15.351193 -0.63961673 2.1503541e-16 0.76869398 0
-228.59293 -171.51031 -14.767124 -0.60970426 -1.1086551e-16 0.792629 0
-224.18488 -176.18547 -14.912395 -0.60970426 -1.1086551e-16 0.792629 0
-223.03337 -176.99374 -14.725695 -0.60970426 -1.1086551e-16 0.792629 0
-226.29715 -173.30354 -14.503567 -0.578897 -1.1405059e-16 0.81540066 0
-224.78696 -174.58693 -14.389698 -0.578897 -3.200866e-16 0.81540066 0
-227.48045 -170.56763 -13.780927 -0.5147801 -1.1991419e-16 0.85732228 0
-229.26747 -168.86624 -13.8173 -0.5147801 -1.1991419e-16 0.85732228 0
-224.78049 -173.11281 -13.715213 -0.5147801 -3.1584154e-16 0.85732228 0
-223.48715 -174.62512 -13.808196 -0.5147801 -2.3153934e-16 0.85732228 0
-221.55582 -176.65198 -13.84874 -0.5147801 -2.8608077e-16 0.85732228 0
-226.48862 -171.47418 -13.744727 -0.5147801 -1.4763113e-16 0.85732228 0
-222.34264 -175.47815 -13.684433 -0.5147801 -5.350957e-16 0.85732228 0
-226.23108 -170.20396 -13.157501 -0.44764224 -1.2368472e-16 0.89421272 0
-221.10796 -175.44254 -13.198373 -0.44764224 -7.0293008e-17 0.89421272 0
-224.99144 -170.91986 -12.980091 -0.41306296 0 0.91070247 0
-223.81075 -172.2829 -13.038567 -0.41306296 0 0.91070247 0
-221.78427 -174.18277 -12.997963 -0.41306296 -1.0696651e-17 0.91070247 0
-228.67885 -166.31621 -12.698156 -0.37787744 -1.295e-16 0.92585564 0
-226.01912 -168.62949 -12.598179 -0.37787744 -1.8290784e-16 0.92585564 0
-224.95297 -169.7076 -12.601623 -0.37787744 -2.0995149e-16 0.92585564 0
-220.02893 -174.6367 -12.603091 -0.37787744 -3.503854e-16 0.92585564 0
-221.39062 -172.84796 -12.490167 -0.34213737 -4.7601372e-16 0.93964994 0
-223.46347 -170.03879 -12.308439 -0.30589512 -7.989957e-16 0.95206523 0
-220.04579 -173.31128 -12.275447 -0.30589512 -5.3832131e-16 0.95206523 0
-226.23431 -166.48068 -12.136289 -0.26920396 -1.3470704e-16 0.96308321 0
-221.86427 -170.70169 -12.106828 -0.26920396 -1.488793e-16 0.96308321 0
-225.01645 -167.32433 -12.062323 -0.26920396 -1.3650144e-16 0.96308321 0
-226.47148 -165.02211 -11.912784 -0.23211768 -2.7210086e-16 0.97268772 0
-218.56908 -173.24112 -11.96621 -0.23211768 -3.1812376e-16 0.97268772 0
-223.40912 -168.16725 -11.926748 -0.23211768 -2.8103502e-16 0.97268772 0
-222.08342 -168.95363 -11.842535 -0.19469075 -4.1158244e-16 0.9808647 0
-219.89426 -171.32869 -11.868633 -0.19469075 -4.1158244e-16 0.9808647 0
-218.46867 -171.44498 -11.699357 -0.15697809 7.481928e-17 0.98760211 0
-220.34753 -169.47276 -11.688867 -0.15697809 1.4707025e-16 0.98760211 0
-221.66714 -167.5833 -11.633975 -0.11903504 -2.7775229e-16 0.99289006 0
-224.09373 -164.81502 -11.605009 -0.11903504 -2.7775229e-16 0.99289006 0
-222.35095 -166.42807 -11.594011 -0.11903504 -1.4190332e-16 0.99289006 0
-219.52808 -168.42879 -11.545405 -0.080917284 6.2271334e-17 0.99672079 0
-222.73978 -164.95377 -11.535081 -0.04268077 0 0.99908876 0
-218.15331 -169.47142 -11.533002 -0.04268077 0 0.99908876 0
-220.35709 -166.99751 -11.524843 -0.04268077 0 0.99908876 0
-216.66267 -170.74754 -11.526523 -0.04268077 0 0.99908876 0
-216.75981 -169.40121 -11.511799 -0.0043816213 -1.1881837e-16 0.9999904 0
-218.58331 -167.29935 -11.518162 0.033923961 -1.3979011e-16 0.9994244 0
-217.44168 -167.90869 -11.530936 0.033923961 -1.3979011e-16 0.9994244 0
-220.82217 -164.56572 -11.530036 0.033923961 -1.3979011e-16 0.9994244 0
-219.37663 -165.66666 -11.544991 0.072179757 -1.3950578e-16 0.99739164 0
-215.3123 -169.75911 -11.54355 0.072179757 -4.8536851e-17 0.99739164 0
-217.81818 -165.84769 -11.636375 0.11032961 1.3882788e-16 0.99389505 0
-220.63426 -162.8488 -11.653267 0.14831755 0 0.98893976 0
-219.50554 -163.76816 -11.675471 0.14831755 0 0.98893976 0
-216.42833 -166.62927 -11.698384 0.14831755 0 0.98893976 0
-216.90826 -164.78125 -11.877669 0.22358495 -2.7265943e-16 0.97468442 0
-220.53046 -161.25362 -11.862324 0.22358495 -2.7265943e-16 0.97468442 0
-215.25302 -165.88942 -11.9664 0.22358495 7.0490287e-17 0.97468442 0
-218.7126 -162.23862 -11.999969 0.26075396 2.7006367e-16 0.96540529 0
-217.80135 -163.17891 -11.994425 0.26075396 2.7006367e-16 0.96540529 0
-213.44182 -167.51433 -11.999032 0.26075396 2.7006367e-16 0.96540529 0
-221.46611 -158.71158 -12.148623 0.29754028 2.6707155e-16 0.95470929 0
-218.77502 -159.9958 -12.477222 0.3338899 0 0.94261205 0
-216.61302 -162.70303 -12.340654 0.3338899 0 0.94261205 0
-215.43831 -163.75595 -12.371162 0.3338899 0 0.94261205 0
-217.76625 -161.25079 -12.415557 0.3338899 0 0.94261205 0
-211.64633 -166.28755 -12.706709 0.36974952 -2.8883059e-17 0.92913145 0
-212.63834 -165.40523 -12.675854 0.36974952 -6.0267479e-17 0.92913145 0
-216.09966 -161.42517 -12.829847 0.40506646 0 0.91428727 0
-213.82162 -163.80835 -12.796907 0.40506646 0 0.91428727 0
-216.94339 -159.94737 -13.031749 0.43978891 2.5123593e-16 0.89810115 0
-217.96344 -158.89937 -13.041425 0.43978891 2.5123593e-16 0.89810115 0
-212.42805 -163.90305 -13.225542 0.43978891 1.695405e-16 0.89810115 0
-214.2348 -161.95392 -13.275804 0.47386593 1.2316964e-16 0.880597 0
-210.93425 -164.62576 -13.515021 0.47386593 -2.6517862e-16 0.880597 0
-216.96906 -158.05525 -13.734359 0.50724745 -3.6162169e-16 0.86180043 0
-214.60342 -160.15807 -13.843753 0.50724745 3.2697298e-17 0.86180043 0
-215.72655 -158.9532 -13.879181 0.53988457 5.8867281e-16 0.84173906 0
-212.46175 -161.79222 -14.072289 0.53988457 3.6378736e-16 0.84173906 0
-211.52827 -163.03479 -13.932107 0.53988457 5.7960733e-16 0.84173906 0
-209.4099 -163.9045 -14.525012 0.5717293 -2.4873383e-15 0.82044232 0
-213.20512 -160.37848 -14.392356 0.5717293 -4.685395e-16 0.82044232 0
-211.60979 -161.20308 -14.791724 0.60273492 -1.7321793e-15 0.79794151 0
-214.09964 -158.71655 -14.789954 0.60273492 -2.5241362e-15 0.79794151 0
-210.40242 -161.96222 -15.041474 0.63285595 5.0737217e-17 0.77426952 0
-214.06586 -157.64696 -15.428523 0.66204822 3.1448282e-16 0.74946123 0
-211.28639 -160.06375 -15.655045 0.66204822 -1.4901417e-16 0.74946123 0
-215.83479 -155.05666 -15.961383 0.69026881 -5.0601907e-16 0.72355306 0
-214.85487 -156.21181 -15.843149 0.69026881 -5.0601907e-16 0.72355306 0
-209.20868 -161.82803 -15.863399 0.69026881 -3.7116256e-16 0.72355306 0
-212.51901 -158.35548 -15.972827 0.69026881 -4.3044234e-16 0.72355306 0
-209.95856 -160.44176 -16.306961 0.71747631 0 0.69658291 0
-212.71071 -156.82909 -16.964338 0.74363083 -1.1368222e-16 0.66859043 0
-216.03017 -153.34763 -17.098927 0.76869398 -3.5785435e-16 0.63961673 0
-210.23978 -159.05872 -17.166288 0.76869398 -3.5779987e-16 0.63961673 0
-208.00726 -161.15852 -17.279066 0.76869398 -9.8908825e-17 0.63961673 0
-211.54106 -157.19754 -17.656162 0.792629 1.7055943e-16 0.60970426 0
-214.90445 -153.1279 -18.334797 0.81540066 -1.6194136e-16 0.578897 0
-208.62393 -159.65335 -18.090824 0.81540066 -1.5359574e-16 0.578897 0
-209.41052 -158.61954 -18.337051 0.81540066 -8.9651529e-17 0.578897 0
-211.08684 -156.39386 -18.921579 0.83697563 1.1713182e-16 0.54724014 0
-207.28671 -160.4454 -18.649675 0.83697563 8.7533556e-17 0.54724014 0
-210.0706 -157.26312 -19.091436 0.85732228 2.8801042e-16 0.5147801 0
-213.82626 -153.43874 -19.172279 0.85732228 2.8801042e-16 0.5147801 0
-208.34329 -158.85576 -19.249981 0.85732228 4.1915605e-16 0.5147801 0
-212.338 -154.65836 -19.489445 0.8764106 6.7356727e-16 0.48156455 0
-207.18376 -159.63148 -19.722509 0.8764106 4.6684819e-16 0.48156455 0
-213.1946 -153.18329 -20.311876 0.89421272 0 0.44764224 0
-210.01402 -156.32199 -20.371048 0.89421272 6.3000272e-17 0.44764224 0
-205.94139 -160.61429 -20.060747 0.89421272 2.3749173e-17 0.44764224 0
-211.29556 -155.00604 -20.419685 0.89421272 4.2246099e-17 0.44764224 0
-208.41556 -157.58049 -20.881733 0.91070247 2.5844833e-16 0.41306296 0
-206.97403 -158.98477 -20.93981 0.91070247 1.6719348e-16 0.41306296 0
-205.88142 -159.7558 -21.477814 0.92585564 -1.2291715e-16 0.37787744 0
-213.01082 -152.47911 -21.739918 0.93964994 -1.9141985e-16 0.34213737 0
-210.95161 -154.30449 -22.193954 0.93964994 -1.1874306e-16 0.34213737 0
-213.69875 -151.41039 -22.510302 0.95206523 8.5571477e-17 0.30589512 0
-209.00638 -156.12573 -22.45977 0.95206523 8.5571477e-17 0.30589512 0
-206.49103 -158.6727 -22.390255 0.95206523 9.2819909e-17 0.30589512 0
-212.69394 -152.18248 -23.051847 0.96308321 1.5061489e-16 0.26920396 0
-209.96207 -154.91563 -23.048618 0.96308321 1.5061489e-16 0.26920396 0
-211.73242 -153.15166 -23.03249 0.96308321 1.5061489e-16 0.26920396 0
-207.34692 -157.48856 -23.155334 0.96308321 1.291417e-16 0.26920396 0
-205.39664 -159.47586 -23.061792 0.96308321 1.2465092e-16 0.26920396 0
-211.04474 -153.47513 -24.055006 0.9808647 0 0.19469075 0
-213.58662 -150.92032 -24.101233 0.9808647 0 0.19469075 0
-205.81183 -158.65057 -24.259773 0.9808647 3.2882325e-17 0.19469075 0
-208.88281 -155.53059 -24.434443 0.9808647 2.7209671e-17 0.19469075 0
-207.53067 -156.82169 -24.664391 0.98760211 8.782649e-17 0.15697809 0
-209.86061 -154.50471 -24.606567 0.98760211 8.782649e-17 0.15697809 0
-212.29391 -151.77502 -26.329754 0.99672079 6.7907703e-17 0.080917284 0
-206.52394 -157.60327 -25.821589 0.99672079 6.7907703e-17 0.080917284 0
-211.23851 -152.87596 -25.932592 0.99672079 6.7907703e-17 0.080917284 0
-209.13036 -154.9977 -25.814455 0.99672079 6.7907703e-17 0.080917284 0
-208.11494 -155.93564 -26.557957 0.99908876 0 0.04268077 0
-204.75012 -159.29785 -26.601114 0.99908876 1.2451741e-15 0.04268077 0
-207.24796 -156.77446 -27.047955 0.9999904 4.475817e-15 0.0043816213 0
-209.36165 -154.66154 -27.720533 0.9994244 0 -0.033923961 0
-205.34261 -158.68831 -27.881691 0.9994244 -6.0110988e-18 -0.033923961 0
-208.17989 -155.86618 -28.197632 0.9994244 -9.8898897e-18 -0.033923961 0
-211.3194 -152.7634 -28.577478 0.99739164 -4.0383308e-17 -0.072179757 0
-210.19597 -153.85834 -28.299145 0.99739164 -4.0383308e-17 -0.072179757 0
-206.14861 -157.92731 -28.510487 0.99739164 -2.9712496e-17 -0.072179757 0
-208.7343 -155.45952 -29.378206 0.99389505 1.8486835e-15 -0.11032961 0
-205.72617 -158.56412 -29.851294 0.98893976 1.962462e-15 -0.14831755 0
-207.54283 -156.72014 -29.722546 0.98893976 3.8635583e-15 -0.14831755 0
-210.55765 -153.82645 -30.243307 0.9825331 -1.561693e-16 -0.1860878 0
-209.00104 -155.52327 -30.746288 0.97468442 0 -0.22358495 0
-207.72055 -156.98117 -31.285484 0.96540529 -2.1883091e-16 -0.26075396 0
-210.26993 -154.52548 -31.530827 0.96540529 -2.1883091e-16 -0.26075396 0
-212.61685 -152.18291 -31.542274 0.96540529 -2.1883091e-16 -0.26075396 0
-206.70284 -158.09149 -31.528004 0.96540529 -1.5772356e-16 -0.26075396 0
-205.96342 -159.13899 -32.267181 0.95470929 1.0741464e-16 -0.29754028 0
-204.98294 -160.07803 -32.173203 0.95470929 9.8276786e-17 -0.29754028 0
-209.21327 -155.91132 -32.31752 0.95470929 6.1799253e-17 -0.29754028 0
-207.81416 -157.56639 -32.839832 0.94261205 1.8680556e-16 -0.3338899 0
-212.42831 -153.11815 -33.150497 0.92913145 2.0686837e-16 -0.36974952 0
-206.8112 -158.86647 -33.383656 0.92913145 2.0686837e-16 -0.36974952 0
-211.29349 -154.59685 -33.740021 0.91428727 2.2662758e-16 -0.40506646 0
-208.24548 -157.84724 -34.063038 0.91428727 -5.2482016e-17 -0.40506646 0
-209.86279 -156.29239 -34.157352 0.89810115 -2.460542e-16 -0.43978891 0
-205.63669 -160.62483 -34.310944 0.89810115 -2.460542e-16 -0.43978891 0
-207.70917 -158.84706 -34.728958 0.880597 -2.6511967e-16 -0.47386593 0
-212.18713 -154.38742 -34.753052 0.880597 -2.6511967e-16 -0.47386593 0
-210.9231 -155.91826 -35.103611 0.880597 -4.3836337e-17 -0.47386593 0
-212.0359 -155.32774 -35.736397 0.84173906 -3.0205595e-16 -0.53988457 0
-206.79526 -160.62755 -35.801544 0.84173906 -3.0205595e-16 -0.53988457 0
-208.91908 -158.60429 -35.912426 0.84173906 -3.0205595e-16 -0.53988457 0
-208.07076 -160.03647 -36.529797 0.82044232 -3.1987252e-16 -0.5717293 0
-210.38487 -157.703 -36.510143 0.82044232 -3.1987252e-16 -0.5717293 0
-212.32857 -156.20755 -36.946415 0.79794151 -3.3721962e-16 -0.60273492 0
-214.44707 -154.22833 -37.076794 0.79794151 -3.3721962e-16 -0.60273492 0
-209.40068 -159.24025 -37.044537 0.79794151 -4.6043546e-16 -0.60273492 0
-211.66798 -157.68713 -37.674969 0.77426952 -3.6809175e-16 -0.63285595 0
-207.99303 -161.32668 -37.644356 0.77426952 -1.2569688e-16 -0.63285595 0
-215.40144 -154.39812 -38.031231 0.74946123 0 -0.66204822 0
-209.07202 -160.60504 -37.933205 0.74946123 1.307265e-16 -0.66204822 0
-210.63455 -159.15889 -38.02636 0.74946123 1.4433412e-16 -0.66204822 0
-212.03401 -158.83731 -38.81469 0.69658291 6.8690047e-16 -0.71747631 0
-210.06181 -161.1234 -39.028107 0.66859043 -4.1604842e-16 -0.74363083 0
-214.37665 -156.92944 -39.104912 0.66859043 -4.1604842e-16 -0.74363083 0
-209.2144 -162.30574 -39.241001 0.66859043 -2.0264156e-17 -0.74363083 0
-213.75681 -158.25853 -39.544884 0.63961673 4.3007081e-16 -0.76869398 0
-211.3103 -160.54201 -39.448982 0.63961673 4.3007081e-16 -0.76869398 0
-208.44952 -163.42453 -39.461761 0.63961673 3.7459193e-16 -0.76869398 0
-212.54294 -160.01773 -39.860641 0.60970426 0 -0.792629 0
-215.71385 -156.85579 -39.865524 0.60970426 0 -0.792629 0
-210.65825 -161.94215 -39.882259 0.60970426 -6.3855055e-18 -0.792629 0
-216.98964 -156.30124 -40.251003 0.578897 -4.5620236e-16 -0.81540066 0
-212.33522 -161.44249 -40.495361 0.578897 -4.5620236e-16 -0.81540066 0
-215.47632 -158.24089 -40.465023 0.578897 -4.5620236e-16 -0.81540066 0
-214.11533 -160.01744 -40.661602 0.54724014 -4.6827322e-16 -0.83697563 0
-210.46739 -163.46329 -40.568165 0.54724014 -4.573818e-16 -0.83697563 0
-212.21048 -162.65675 -40.989178 0.5147801 0 -0.85732228 0
-198.20779 -178.58281 -41.725761 0.44764224 5.0029636e-16 -0.89421272 0
-195.76178 -179.55321 -41.178291 0.48156455 0 -0.8764106 0
-194.60361 -180.58029 -41.123627 0.5147801 0 -0.85732228 0
-198.84021 -176.35751 -41.129486 0.5147801 0 -0.85732228 0
-200.40488 -174.29028 -40.916115 0.5147801 0 -0.85732228 0
-197.78967 -177.13991 -41.015621 0.5147801 0 -0.85732228 0
-192.35646 -181.61827 -40.588493 0.54724014 0 -0.83697563 0
-196.11247 -178.13846 -40.716217 0.54724014 0 -0.83697563 0
-193.39587 -180.36104 -40.484921 0.578897 0 -0.81540066 0
-194.931 -178.49117 -40.316883 0.578897 0 -0.81540066 0
-197.55696 -175.6862 -40.227016 0.578897 0 -0.81540066 0
-196.4021 -176.69954 -40.154877 0.60970426 0 -0.792629 0
-198.20908 -174.25017 -39.80547 0.60970426 3.6104089e-16 -0.792629 0
-199.38483 -173.64252 -40.114445 0.60970426 3.5787834e-17 -0.792629 0
-195.01326 -176.98799 -39.536591 0.63961673 1.2820582e-16 -0.76869398 0
-193.92285 -177.61963 -39.255211 0.66859043 -1.2481453e-15 -0.74363083 0
-196.19823 -175.12857 -39.118088 0.66859043 -6.0279873e-16 -0.74363083 0
-191.33977 -179.71788 -38.9426 0.69658291 4.0141543e-16 -0.71747631 0
-197.44238 -173.51917 -38.876614 0.69658291 2.4754588e-16 -0.71747631 0
-192.24539 -178.44528 -38.690659 0.69658291 3.9803163e-16 -0.71747631 0
-198.43968 -172.61699 -38.941925 0.69658291 3.0571322e-16 -0.71747631 0
-193.4267 -176.60306 -38.20974 0.72355306 -6.6685528e-16 -0.69026881 0
-190.1732 -179.28906 -37.761276 0.74946123 -3.7040436e-16 -0.66204822 0
-194.27646 -175.25072 -37.813206 0.74946123 -3.7040436e-16 -0.66204822 0
-197.15703 -172.47232 -37.895 0.74946123 -3.7040436e-16 -0.66204822 0
-192.31488 -177.12898 -37.74651 0.74946123 -3.7040436e-16 -0.66204822 0
-195.68651 -173.43217 -37.470425 0.77426952 -2.213375e-16 -0.63285595 0
-192.98123 -175.8541 -37.225269 0.77426952 -5.5042285e-17 -0.63285595 0
-197.21541 -171.45821 -37.0751 0.79794151 2.6540689e-16 -0.60273492 0
-194.38472 -173.87715 -36.686707 0.82044232 0 -0.5717293 0
-192.04184 -175.78215 -36.242393 0.82044232 1.2462215e-15 -0.5717293 0
-193.34129 -174.66817 -36.430607 0.82044232 4.3293966e-16 -0.5717293 0
-197.1718 -170.4373 -36.006931 0.84173906 1.9001698e-15 -0.53988457 0
-190.86209 -176.56735 -35.808853 0.84173906 3.0527421e-15 -0.53988457 0
-189.39735 -177.70511 -35.424587 0.86180043 -2.8379606e-16 -0.50724745 0
-196.17462 -170.75528 -35.217293 0.86180043 -3.9380094e-17 -0.50724745 0
-193.5473 -173.54764 -35.415585 0.86180043 -2.3231739e-16 -0.50724745 0
-192.30147 -174.60609 -35.190437 0.86180043 -1.468929e-16 -0.50724745 0
-195.108 -172.12323 -35.579288 0.86180043 -2.7373611e-16 -0.50724745 0
-191.08559 -175.60754 -34.908829 0.880597 0 -0.47386593 0
-195.00597 -171.36069 -34.462692 0.89810115 2.460542e-16 -0.43978891 0
-191.43359 -174.66667 -34.074963 0.91428727 2.2662758e-16 -0.40506646 0
-193.36819 -172.74442 -34.09473 0.91428727 2.2662758e-16 -0.40506646 0
-188.70251 -177.1015 -33.602211 0.91428727 2.2662758e-16 -0.40506646 0
-192.24026 -173.57335 -33.617577 0.91428727 2.2662758e-16 -0.40506646 0
-194.0623 -171.65778 -33.459015 0.92913145 2.0686837e-16 -0.36974952 0
-195.79309 -169.9774 -33.548592 0.92913145 2.0686837e-16 -0.36974952 0
-190.37457 -175.0172 -32.862091 0.94261205 -1.8680556e-16 -0.3338899 0
-193.06946 -172.30806 -32.833691 0.94261205 -1.8680556e-16 -0.3338899 0
-194.87852 -170.3092 -32.454838 0.94261205 -1.8680556e-16 -0.3338899 0
-191.08896 -174.07452 -32.40583 0.95470929 -1.6646858e-16 -0.29754028 0
-188.12466 -176.86072 -32.001705 0.95470929 -1.6646858e-16 -0.29754028 0
-195.57384 -169.36906 -31.9053 0.95470929 -2.8371862e-17 -0.29754028 0
-192.01631 -172.87386 -31.778772 0.96540529 0 -0.26075396 0
-189.69643 -175.00536 -31.285625 0.96540529 0 -0.26075396 0
-191.43396 -173.07378 -30.695143 0.97468442 -1.1138454e-16 -0.22358495 0
-193.18549 -171.38728 -30.89555 0.97468442 -7.4745436e-17 -0.22358495 0
-190.20273 -174.15332 -30.138367 0.9825331 -1.5651176e-16 -0.1860878 0
-194.24028 -170.02264 -29.722281 0.98893976 -1.7996882e-15 -0.14831755 0
-189.29854 -174.8943 -29.371637 0.99389505 -4.5411262e-15 -0.11032961 0
-191.42964 -172.73897 -29.217449 0.99389505 -4.5411262e-15 -0.11032961 0
-186.79979 -177.33646 -29.011097 0.99389505 -4.5411262e-15 -0.11032961 0
-195.11136 -169.08308 -29.381742 0.99389505 -4.2653771e-15 -0.11032961 0
-193.1769 -170.99054 -29.209646 0.99389505 -3.949026e-15 -0.11032961 0
-187.97383 -176.14732 -28.914955 0.99389505 -4.3503146e-15 -0.11032961 0
-190.0889 -173.9859 -28.499416 0.99739164 -4.0383308e-17 -0.072179757 0
-194.21739 -169.81584 -27.929733 0.9994244 2.8407531e-15 -0.033923961 0
-192.2814 -171.74951 -27.881237 0.9994244 3.4542874e-15 -0.033923961 0
-195.43828 -168.59187 -27.866337 0.9994244 1.7541724e-15 -0.033923961 0
-189.23358 -174.78651 -27.430988 0.9999904 3.6771603e-18 0.0043816213 0
-190.77531 -173.24432 -27.501848 0.9999904 3.6771603e-18 0.0043816213 0
-193.24634 -170.77422 -27.35585 0.9999904 -8.9765979e-16 0.0043816213 0
-194.14099 -169.92374 -26.366516 0.99672079 4.52718e-17 0.080917284 0
-190.64491 -173.48164 -25.827553 0.99672079 4.52718e-17 0.080917284 0
-188.98729 -175.13295 -25.882858 0.99672079 4.52718e-17 0.080917284 0
-192.27434 -171.86348 -25.754553 0.99289006 6.6598018e-17 0.11903504 0
-193.24556 -170.8976 -25.722765 0.99289006 6.6598018e-17 0.11903504 0
-194.29274 -169.9613 -25.101702 0.98760211 4.293653e-17 0.15697809 0
-195.49236 -168.85478 -24.687681 0.98760211 7.0468906e-18 0.15697809 0
-190.01137 -174.37962 -24.514153 0.9808647 -0 0.19469075 0
-193.0229 -171.48926 -24.08256 0.9808647 -2.4941899e-15 0.19469075 0
-191.38565 -173.14581 -24.01391 0.9808647 -2.1939926e-15 0.19469075 0
-187.61121 -177.00986 -23.746819 0.97268772 -4.3536138e-15 0.23211768 0
-194.61409 -170.04887 -23.622625 0.97268772 -2.0543691e-15 0.23211768 0
-190.58131 -174.1989 -23.295326 0.96308321 1.5061489e-16 0.26920396 0
-192.28546 -172.61774 -22.984194 0.96308321 7.6981729e-17 0.26920396 0
-190.08771 -175.31215 -21.914835 0.93964994 1.9141985e-16 0.34213737 0
-195.24413 -170.11337 -21.997175 0.93964994 1.5923715e-16 0.34213737 0
-194.15659 -171.16975 -22.057579 0.93964994 1.8077228e-16 0.34213737 0
-191.04189 -174.41504 -21.804054 0.93964994 1.7222968e-16 0.34213737 0
-188.03706 -177.5858 -21.502647 0.92585564 1.0570791e-16 0.37787744 0
-192.05698 -173.48222 -21.647684 0.92585564 1.0570791e-16 0.37787744 0
-193.03207 -172.7968 -21.145809 0.92585564 -2.3609252e-15 0.37787744 0
-189.14056 -176.73767 -21.065401 0.91070247 -4.1917272e-15 0.41306296 0
-195.32808 -170.76903 -20.724184 0.91070247 -1.8811799e-15 0.41306296 0
-191.58116 -174.63593 -20.539064 0.89421272 -1.2522399e-16 0.44764224 0
-194.09717 -172.34035 -20.227674 0.89421272 -4.5659404e-17 0.44764224 0
-190.07898 -176.43349 -20.12184 0.89421272 -1.1005725e-16 0.44764224 0
-189.19969 -177.51283 -19.854748 0.8764106 1.3471346e-16 0.48156455 0
-196.59976 -170.01888 -19.975527 0.8764106 1.2095674e-16 0.48156455 0
-191.77005 -175.38655 -19.300003 0.85732228 -1.4400521e-16 0.5147801 0
-192.92747 -174.30202 -19.214146 0.85732228 -3.3029589e-16 0.5147801 0
-195.67653 -172.19582 -18.497995 0.83697563 -8.4355582e-16 0.54724014 0
-194.05754 -173.608 -18.721678 0.83697563 -3.5862841e-15 0.54724014 0
-189.06458 -179.19553 -18.10796 0.81540066 4.8582406e-16 0.578897 0
-197.38626 -170.60503 -18.375685 0.81540066 4.8582406e-16 0.578897 0
-191.89706 -176.82957 -17.667152 0.792629 5.1167826e-16 0.60970426 0
-195.0825 -173.58087 -17.725292 0.792629 3.9646693e-16 0.60970426 0
-194.05365 -174.58607 -17.747032 0.792629 5.0447673e-16 0.60970426 0
-197.34073 -172.02417 -17.109903 0.76869398 3.0801276e-16 0.63961673 0
-192.32124 -177.52739 -16.721447 0.74363083 5.6109691e-16 0.66859043 0
-193.86139 -175.94878 -16.751698 0.74363083 5.4166396e-16 0.66859043 0
-195.90366 -174.45975 -16.333858 0.71747631 2.3175282e-16 0.69658291 0
-191.07764 -179.73343 -16.015627 0.69026881 4.0481523e-16 0.72355306 0
-197.34224 -174.02831 -15.642301 0.66204822 6.2896564e-16 0.74946123 0
-194.58592 -177.18903 -15.389699 0.66204822 4.1897519e-16 0.74946123 0
-199.17714 -172.57545 -15.403678 0.66204822 -3.1809432e-17 0.74946123 0
-196.66176 -175.16902 -15.354815 0.66204822 1.2213987e-16 0.74946123 0
-194.38567 -178.57619 -14.712182 0.60273492 -1.1160857e-16 0.79794151 0
-196.59508 -176.57051 -14.603362 0.60273492 8.4153286e-17 0.79794151 0
-193.69087 -179.88196 -14.39768 0.5717293 3.4426733e-16 0.82044232 0
-199.31976 -174.53503 -14.258737 0.5717293 5.0136404e-16 0.82044232 0
-195.50893 -178.65941 -14.111132 0.53988457 5.8867281e-16 0.84173906 0
-197.99361 -176.04709 -14.16902 0.53988457 5.8867281e-16 0.84173906 0
-197.07764 -178.5047 -13.506547 0.47386593 2.4633928e-16 0.880597 0
-195.40591 -180.16177 -13.512094 0.47386593 2.4633928e-16 0.880597 0
-200.49918 -175.64409 -13.293098 0.47386593 5.250471e-17 0.880597 0
-198.15785 -177.65584 -13.418506 0.47386593 2.193382e-16 0.880597 0
-201.69519 -174.80501 -13.166992 0.43978891 -1.371172e-16 0.89810115 0
-197.87241 -179.47675 -12.884876 0.40506646 -3.8364576e-16 0.91428727 0
-196.17545 -181.14948 -12.892486 0.40506646 -3.8364576e-16 0.91428727 0
-199.73961 -177.48978 -12.922406 0.40506646 -3.558847e-16 0.91428727 0
-195.15399 -183.86646 -12.414703 0.3338899 5.2737494e-16 0.94261205 0
-199.44975 -179.18257 -12.511925 0.3338899 5.2737494e-16 0.94261205 0
-201.20065 -178.05981 -12.354582 0.3338899 5.2737494e-16 0.94261205 0
-201.96489 -176.73438 -12.495155 0.3338899 5.2737494e-16 0.94261205 0
-198.71211 -181.00519 -12.25009 0.29754028 5.3414311e-16 0.95470929 0
-196.48654 -183.3308 -12.228057 0.29754028 5.3414311e-16 0.95470929 0
-200.29172 -181.08681 -11.928112 0.22358495 -1.3632971e-16 0.97468442 0
-201.66431 -179.8884 -11.899857 0.22358495 4.0227745e-17 0.97468442 0
-198.66725 -183.76317 -11.77309 0.1860878 4.1228254e-16 0.9825331 0
-203.43347 -178.63344 -11.821775 0.1860878 3.6968459e-16 0.9825331 0
-203.06334 -180.25179 -11.671079 0.14831755 -0 0.98893976 0
-200.35101 -182.85997 -11.682121 0.14831755 -0 0.98893976 0
-199.85284 -184.31657 -11.59685 0.11032961 -0 0.99389505 0
-204.54961 -180.24794 -11.557565 0.072179757 -3.910362e-17 0.99739164 0
-202.19019 -182.8987 -11.542658 0.072179757 -4.7534493e-17 0.99739164 0
-198.71669 -186.94835 -11.523386 0.033923961 -1.3979011e-16 0.9994244 0
-201.48228 -184.0145 -11.527425 0.033923961 -1.3979011e-16 0.9994244 0
-203.8459 -181.85373 -11.522555 0.033923961 -5.5213277e-17 0.9994244 0
-205.89861 -179.68071 -11.525445 0.033923961 -1.5221525e-17 0.9994244 0
-202.85254 -184.92691 -11.537676 -0.04268077 0 0.99908876 0
-200.64081 -187.29636 -11.544273 -0.080917284 0 0.99672079 0
-201.99777 -185.9568 -11.545273 -0.080917284 0 0.99672079 0
-206.09807 -182.52711 -11.583768 -0.080917284 0 0.99672079 0
-199.70398 -189.15715 -11.600969 -0.11903504 0 0.99289006 0
-208.15855 -181.3131 -11.652725 -0.11903504 2.4038946e-16 0.99289006 0
-202.30678 -187.25958 -11.660752 -0.11903504 8.8710647e-17 0.99289006 0
-203.58936 -186.42236 -11.710374 -0.15697809 2.7627303e-16 0.98760211 0
-204.59641 -185.12956 -11.678256 -0.15697809 2.7627303e-16 0.98760211 0
-200.96123 -188.76474 -11.678259 -0.15697809 2.7627303e-16 0.98760211 0
-202.66374 -188.49928 -11.860214 -0.19469075 4.2424287e-17 0.9808647 0
-208.8213 -182.46721 -11.878179 -0.23211768 2.7210086e-16 0.97268772 0
-206.29784 -185.62096 -11.984534 -0.23211768 1.0111375e-16 0.97268772 0
-207.3541 -184.16795 -11.91759 -0.23211768 2.3752622e-16 0.97268772 0
-208.86209 -183.88191 -12.142022 -0.26920396 1.2871896e-16 0.96308321 0
-202.04381 -190.96053 -12.195303 -0.30589512 2.6633191e-16 0.95206523 0
-205.84375 -187.19011 -12.202021 -0.30589512 2.6633191e-16 0.95206523 0
-204.32594 -188.64612 -12.187976 -0.30589512 2.6633191e-16 0.95206523 0
-207.34413 -186.93837 -12.501459 -0.34213737 5.4660121e-16 0.93964994 0
-208.2798 -185.84628 -12.461196 -0.34213737 5.783353e-16 0.93964994 0
-205.57555 -188.72354 -12.505734 -0.34213737 6.1652267e-16 0.93964994 0
-204.66229 -190.29604 -12.687563 -0.37787744 2.5899999e-16 0.92585564 0
-209.98663 -185.22781 -12.761475 -0.37787744 -9.69134e-17 0.92585564 0
-206.79979 -188.21974 -12.705221 -0.37787744 2.080049e-16 0.92585564 0
-202.81732 -193.3138 -13.050555 -0.41306296 -2.5476104e-16 0.91070247 0
-204.10278 -192.63333 -13.264069 -0.44764224 -2.5014818e-16 0.89421272 0
-211.28922 -185.53264 -13.294404 -0.44764224 -1.4933179e-16 0.89421272 0
-208.4848 -187.94626 -13.1561 -0.44764224 -2.4916949e-16 0.89421272 0
-210.35934 -186.56381 -13.330379 -0.48156455 -1.2258409e-16 0.8764106 0
-206.3396 -191.16052 -13.554548 -0.48156455 -6.6769007e-17 0.8764106 0
-209.37468 -188.68579 -13.786182 -0.5147801 2.5485466e-16 0.85732228 0
-208.40422 -190.02922 -13.945341 -0.54724014 -2.3413661e-16 0.83697563 0
-211.87892 -186.68375 -14.005086 -0.54724014 -1.6889923e-16 0.83697563 0
-206.79121 -192.51515 -14.355804 -0.578897 3.4215179e-16 0.81540066 0
-211.0976 -188.59425 -14.5493 -0.578897 1.5408906e-16 0.81540066 0
-208.28482 -191.54453 -14.618361 -0.578897 1.9680261e-16 0.81540066 0
-209.57704 -190.2356 -14.60994 -0.578897 1.5542931e-16 0.81540066 0
-212.93483 -187.4549 -14.922921 -0.60970426 8.1222287e-17 0.792629 0
-211.54134 -189.49632 -15.298522 -0.63961673 -3.3548071e-16 0.76869398 0
-208.44887 -192.77356 -15.409348 -0.66859043 -7.2808475e-16 0.74363083 0
-210.80681 -191.00423 -15.783528 -0.66859043 -1.1294131e-16 0.74363083 0
-214.13716 -187.50095 -15.673626 -0.66859043 1.8577658e-18 0.74363083 0
-208.5722 -193.98845 -16.30464 -0.72355306 -1.9309665e-16 0.69026881 0
-212.6631 -189.83061 -16.255022 -0.72355306 -1.9309665e-16 0.69026881 0
-207.08197 -195.81303 -16.552435 -0.72355306 -1.9309665e-16 0.69026881 0
-213.72142 -188.86096 -16.320745 -0.72355306 -2.1843325e-16 0.69026881 0
-210.32182 -192.94054 -16.838531 -0.74946123 -3.7040436e-16 0.66204822 0
-209.59172 -194.19447 -17.269918 -0.77426952 3.5407182e-16 0.63285595 0
-215.06497 -188.90935 -17.432673 -0.77426952 -3.3058346e-16 0.63285595 0
-212.04718 -191.80544 -17.327374 -0.77426952 2.5655696e-16 0.63285595 0
-210.72112 -193.91068 -18.036039 -0.79794151 -2.9402152e-16 0.60273492 0
-209.92365 -194.95905 -18.288202 -0.82044232 3.1987252e-16 0.5717293 0
-213.56918 -191.49701 -18.474403 -0.82044232 2.2467964e-15 0.5717293 0
-212.87862 -192.66515 -18.993143 -0.84173906 1.9669981e-15 0.53988457 0
-208.02467 -197.72046 -19.227575 -0.86180043 -2.8379606e-16 0.50724745 0
-212.07568 -193.95055 -19.565296 -0.86180043 -2.8379606e-16 0.50724745 0
-215.91795 -190.0471 -19.491791 -0.86180043 -2.8379606e-16 0.50724745 0
-210.80122 -195.18294 -19.514753 -0.86180043 -2.8379606e-16 0.50724745 0
-214.7516 -191.41179 -19.74221 -0.880597 -2.5679532e-16 0.47386593 0
-209.0692 -197.55151 -20.36339 -0.89810115 -1.230271e-16 0.43978891 0
-213.34082 -193.21144 -20.264576 -0.89810115 -1.230271e-16 0.43978891 0
-211.10716 -195.78938 -20.769981 -0.91428727 1.1331379e-16 0.40506646 0
-215.56102 -191.55457 -21.119595 -0.91428727 4.3020856e-17 0.40506646 0
-214.23154 -192.90942 -21.160053 -0.91428727 5.1716612e-17 0.40506646 0
-212.69057 -194.38278 -21.052179 -0.91428727 9.2703389e-17 0.40506646 0
-216.76068 -190.5997 -21.540926 -0.92913145 0 0.36974952 0
-213.34161 -194.34659 -22.162745 -0.94261205 -3.3743027e-17 0.3338899 0
-211.36101 -196.42923 -22.366409 -0.94261205 -5.7806366e-17 0.3338899 0
-215.46445 -192.46091 -22.671268 -0.95470929 -1.1921387e-16 0.29754028 0
-216.59756 -191.36046 -22.74531 -0.95470929 -7.7297222e-17 0.29754028 0
-214.51271 -193.4595 -22.77759 -0.95470929 -1.0682707e-16 0.29754028 0
-212.42969 -195.90765 -23.733423 -0.97468442 0 0.22358495 0
-213.27031 -195.00694 -23.54812 -0.97468442 0 0.22358495 0
-214.39502 -194.08174 -24.167879 -0.9825331 -1.0411287e-16 0.1860878 0
-217.16003 -191.33691 -24.24329 -0.9825331 -9.2713599e-17 0.1860878 0
-211.76822 -196.84508 -24.677654 -0.9825331 -8.0264478e-17 0.1860878 0
-216.05406 -192.45122 -24.274265 -0.9825331 -1.0019034e-16 0.1860878 0
-213.31194 -195.36324 -24.953444 -0.98893976 0 0.14831755 0
-208.87587 -199.82326 -25.066154 -0.98893976 0 0.14831755 0
-211.03287 -197.73524 -25.409748 -0.99389505 -4.4793986e-15 0.11032961 0
-216.95552 -191.88158 -25.849333 -0.99389505 -1.1982864e-15 0.11032961 0
-215.77869 -193.01614 -25.579868 -0.99389505 -3.7526888e-15 0.11032961 0
-213.97899 -194.89041 -26.113178 -0.99739164 -2.0191654e-17 0.072179757 0
-212.18892 -196.6678 -25.989378 -0.99739164 -2.0191654e-17 0.072179757 0
-209.93582 -198.92667 -26.046078 -0.99739164 -2.0191654e-17 0.072179757 0
-215.07169 -193.80893 -26.223154 -0.99739164 6.1578099e-16 0.072179757 0
-217.83148 -191.08934 -26.686651 -0.9994244 3.5315374e-15 0.033923961 0
-210.63702 -198.30522 -27.368135 -0.9999904 1.2257201e-18 -0.0043816213 0
-211.97781 -196.96202 -27.756895 -0.9999904 2.0011542e-18 -0.0043816213 0
-212.9713 -195.96869 -27.725565 -0.9999904 2.1461232e-18 -0.0043816213 0
-217.17302 -191.76802 -27.558573 -0.9999904 2.6202662e-18 -0.0043816213 0
-216.10004 -192.82669 -27.984335 -0.99908876 3.2233458e-17 -0.04268077 0
-211.10327 -197.74907 -28.818508 -0.99672079 2.26359e-17 -0.080917284 0
-215.23059 -193.6196 -28.837326 -0.99672079 1.2170413e-17 -0.080917284 0
-214.18959 -194.65845 -28.855633 -0.99672079 1.4108594e-17 -0.080917284 0
-217.31372 -191.47931 -29.221434 -0.99289006 0 -0.11903504 0
-212.88158 -195.85889 -29.531538 -0.99289006 0 -0.11903504 0
-216.3968 -192.40144 -29.190552 -0.99289006 0 -0.11903504 0
-209.50047 -199.11838 -30.086384 -0.98760211 0 -0.15697809 0
-211.82874 -196.82353 -29.937576 -0.98760211 0 -0.15697809 0
-213.73476 -194.8107 -30.368044 -0.9808647 0 -0.19469075 0
-210.48505 -198.0872 -30.27282 -0.9808647 0 -0.19469075 0
-215.49251 -193.07016 -30.306898 -0.9808647 0 -0.19469075 0
-216.70084 -191.73744 -30.749899 -0.9808647 0 -0.19469075 0
-214.46889 -193.85446 -31.096577 -0.97268772 0 -0.23211768 0
-212.87318 -195.34721 -31.397964 -0.96308321 0 -0.26920396 0
-210.87701 -197.26338 -31.600468 -0.96308321 0 -0.26920396 0
-209.7561 -198.46791 -31.388876 -0.96308321 0 -0.26920396 0
-215.57835 -192.43416 -31.924009 -0.96308321 0 -0.26920396 0
-212.83025 -194.79102 -32.76104 -0.93964994 1.9141985e-16 -0.34213737 0
-209.65941 -197.99693 -32.692989 -0.93964994 1.9141985e-16 -0.34213737 0
-216.21426 -191.2883 -32.991478 -0.93964994 3.2008184e-16 -0.34213737 0
-211.02869 -196.49551 -32.949528 -0.93964994 1.9527495e-16 -0.34213737 0
-214.24472 -193.04645 -33.371124 -0.92585564 -1.9461635e-16 -0.37787744 0
-209.47588 -197.47244 -33.93642 -0.91070247 -4.0761767e-15 -0.41306296 0
-212.88812 -194.13336 -33.822327 -0.91070247 -4.0761767e-15 -0.41306296 0
-216.45097 -190.40094 -34.086613 -0.91070247 -1.2747554e-15 -0.41306296 0
-210.55107 -196.08299 -34.408081 -0.89421272 0 -0.44764224 0
-215.43095 -191.24455 -34.349503 -0.89421272 0 -0.44764224 0
-214.33746 -192.21106 -34.528896 -0.89421272 0 -0.44764224 0
-211.3158 -194.82565 -35.074795 -0.8764106 0 -0.48156455 0
-212.48532 -193.33681 -35.470837 -0.85732228 -2.8801042e-16 -0.5147801 0
-214.14169 -191.46713 -35.721992 -0.85732228 -2.4070089e-15 -0.5147801 0
-209.98181 -195.66039 -35.682777 -0.85732228 -3.3397064e-16 -0.5147801 0
-213.07692 -192.31384 -35.966782 -0.83697563 -4.0523568e-15 -0.54724014 0
-214.93727 -190.40417 -36.0201 -0.83697563 -2.952057e-15 -0.54724014 0
-206.96701 -197.94759 -36.470646 -0.81540066 6.4776543e-16 -0.578897 0
-207.79558 -196.46945 -37.095982 -0.792629 3.4111886e-16 -0.60970426 0
-210.54491 -193.51483 -37.284729 -0.792629 2.1288562e-16 -0.60970426 0
-215.37703 -189.06259 -36.935509 -0.792629 2.8351683e-16 -0.60970426 0
-211.93848 -192.38481 -37.04245 -0.792629 3.3629241e-16 -0.60970426 0
-212.95935 -190.99197 -37.379459 -0.76869398 0 -0.63961673 0
-214.08052 -189.72026 -37.507401 -0.76869398 1.845125e-16 -0.63961673 0
-209.03247 -194.28482 -37.908516 -0.74363083 7.4812925e-16 -0.66859043 0
-210.75465 -192.22168 -38.176655 -0.74363083 4.5479745e-16 -0.66859043 0
-213.49686 -188.99876 -38.531483 -0.71747631 -1.7077088e-15 -0.69658291 0
-209.02771 -192.71323 -39.051258 -0.69026881 -1.9181978e-15 -0.72355306 0
-211.31715 -190.70166 -38.863815 -0.69026881 -2.7243301e-15 -0.72355306 0
-210.0667 -191.59016 -39.107143 -0.66204822 8.3862085e-16 -0.74946123 0
-205.38298 -196.19733 -39.154968 -0.66204822 8.3862085e-16 -0.74946123 0
-207.66855 -192.91887 -39.754543 -0.63285595 0 -0.77426952 0
-205.60399 -194.91719 -39.792835 -0.63285595 0 -0.77426952 0
-212.57697 -187.73463 -39.911713 -0.60273492 -4.4643427e-16 -0.79794151 0
-210.18135 -189.89351 -40.038189 -0.60273492 -4.2488356e-16 -0.79794151 0
-211.25562 -188.55423 -40.179703 -0.60273492 -1.9264765e-16 -0.79794151 0
-208.2346 -190.992 -40.472675 -0.5717293 4.4058812e-17 -0.82044232 0
-206.40167 -192.34094 -40.702263 -0.53988457 4.7093825e-16 -0.84173906 0
-204.70418 -193.94412 -40.745029 -0.53988457 4.7093825e-16 -0.84173906 0
-210.06432 -188.43901 -40.81078 -0.53988457 3.0723161e-16 -0.84173906 0
-209.01283 -189.48787 -40.811966 -0.53988457 3.6059982e-16 -0.84173906 0
-210.70828 -186.80287 -41.233349 -0.50724745 0 -0.86180043 0
-205.12694 -192.22993 -41.292328 -0.47386593 0 -0.880597 0
-206.10692 -190.7518 -41.481892 -0.47386593 0 -0.880597 0
-207.08041 -189.59619 -41.548824 -0.43978891 0 -0.89810115 0
-208.02106 -188.04724 -41.759457 -0.43978891 0 -0.89810115 0
-204.65492 -191.00812 -41.889565 -0.40506646 0 -0.91428727 0
-209.56081 -186.14542 -41.876034 -0.40506646 7.2788989e-17 -0.91428727 0
-210.6604 -184.75105 -41.968391 -0.40506646 3.3546878e-16 -0.91428727 0
-208.32343 -186.76772 -42.06572 -0.36974952 5.1983275e-16 -0.92913145 0
-203.11407 -191.53961 -42.188808 -0.36974952 5.1983275e-16 -0.92913145 0
-203.67761 -190.15916 -42.401707 -0.3338899 1.5821248e-15 -0.94261205 0
-205.14589 -189.1237 -42.293278 -0.3338899 1.5821248e-15 -0.94261205 0
-206.50778 -187.29318 -42.410656 -0.3338899 1.1214283e-15 -0.94261205 0
-209.17827 -184.7336 -42.382881 -0.3338899 8.7700748e-16 -0.94261205 0
-207.9574 -185.48582 -42.4963 -0.29754028 0 -0.95470929 0
-201.82053 -190.73372 -42.686359 -0.26075396 0 -0.96540529 0
-206.65746 -185.99042 -42.668476 -0.26075396 0 -0.96540529 0
-203.92953 -188.5361 -42.703278 -0.26075396 0 -0.96540529 0
-209.16748 -183.43904 -42.676373 -0.26075396 0 -0.96540529 0
-202.72401 -189.3564 -42.776848 -0.26075396 0 -0.96540529 0
-201.1499 -189.68121 -42.976902 -0.1860878 5.4971004e-16 -0.9825331 0
-206.91171 -183.65437 -43.012394 -0.1860878 3.2599389e-16 -0.9825331 0
-208.09764 -182.62611 -42.991276 -0.1860878 3.6073169e-16 -0.9825331 0
-205.37474 -185.01242 -43.03635 -0.1860878 2.9831868e-16 -0.9825331 0
-203.43137 -186.14935 -43.12603 -0.14831755 0 -0.98893976 0
-202.10527 -187.36691 -43.137547 -0.14831755 0 -0.98893976 0
-206.1073 -182.43517 -43.212872 -0.11032961 4.4778053e-16 -0.99389505 0
-207.18796 -181.18404 -43.221893 -0.072179757 4.8337222e-16 -0.99739164 0
-203.7991 -184.37289 -43.232132 -0.072179757 5.5773361e-16 -0.99739164 0
-204.73131 -182.78294 -43.261467 -0.033923961 0 -0.9994244 0
-201.93936 -185.14609 -43.271759 -0.033923961 0 -0.9994244 0
-199.50803 -187.19406 -43.277954 0.0043816213 0 -0.9999904 0
-200.12752 -185.98996 -43.276138 0.0043816213 1.0677984e-16 -0.9999904 0
-197.38367 -188.07095 -43.260593 0.04268077 1.1179453e-15 -0.99908876 0
-202.55247 -183.05319 -43.265152 0.04268077 1.1179453e-15 -0.99908876 0
-201.4664 -183.8194 -43.255493 0.04268077 8.2961943e-16 -0.99908876 0
-205.68878 -180.16891 -43.272762 0.04268077 1.0831303e-15 -0.99908876 0
-197.68356 -186.69783 -43.208828 0.080917284 0 -0.99672079 0
-199.41734 -184.58926 -43.181065 0.11903504 0 -0.99289006 0
-203.21124 -181.02164 -43.200253 0.11903504 0 -0.99289006 0
-204.75505 -179.23906 -43.180012 0.11903504 -1.1240036e-16 -0.99289006 0
-201.46284 -181.27069 -43.055286 0.15697809 -3.3972784e-16 -0.98760211 0
-200.02861 -182.3163 -43.00642 0.19469075 0 -0.9808647 0
-202.74054 -179.56012 -43.000202 0.19469075 0 -0.9808647 0
-198.68538 -182.79031 -42.878433 0.23211768 0 -0.97268772 0
-200.0415 -180.85156 -42.780132 0.23211768 0 -0.97268772 0
-196.74449 -183.91547 -42.735329 0.26920396 0 -0.96308321 0
-202.08957 -178.38094 -42.69788 0.26920396 0 -0.96308321 0
-198.45831 -181.41843 -42.576267 0.30589512 0 -0.95206523 0
-200.61311 -178.41747 -42.378883 0.34213737 0 -0.93964994 0
-196.53967 -182.41473 -42.359272 0.34213737 0 -0.93964994 0
-202.67459 -175.76451 -42.226604 0.34213737 0 -0.93964994 0
-195.22137 -182.96205 -42.154266 0.37787744 0 -0.92585564 0
-201.11613 -176.58427 -42.014885 0.37787744 -3.8022584e-16 -0.92585564 0
-195.31364 -181.75562 -41.815838 0.41306296 -5.0952208e-16 -0.91070247 0
-196.56978 -180.61768 -41.853733 0.41306296 -5.0952208e-16 -0.91070247 0
-199.3138 -177.51195 -41.737736 0.41306296 1.9955875e-16 -0.91070247 0
-204.93376 -171.19194 -41.490391 0.44764224 -5.4368725e-17 -0.89421272 0
-203.49718 -172.62306 -41.488453 0.44764224 -5.0810456e-17 -0.89421272 0
-202.88503 -173.87038 -41.713303 0.44764224 3.4822655e-16 -0.89421272 0
-208.89368 -168.02187 -41.766533 0.41306296 -1.4577368e-16 -0.91070247 0
-206.3652 -171.19366 -41.97287 0.41306296 4.9103244e-18 -0.91070247 0
-208.21312 -169.37837 -41.983334 0.41306296 1.7033679e-16 -0.91070247 0
-205.75432 -172.60378 -42.204697 0.37787744 -3.8033206e-16 -0.92585564 0
-204.46524 -173.63071 -42.129028 0.37787744 -4.1717566e-16 -0.92585564 0
-211.24098 -167.25537 -42.241337 0.34213737 -9.9781604e-16 -0.93964994 0
-208.5022 -170.52367 -42.377686 0.34213737 -6.4615358e-16 -0.93964994 0
-204.10776 -175.03474 -42.407715 0.34213737 -1.2481038e-16 -0.93964994 0
-207.81201 -171.86159 -42.530132 0.30589512 0 -0.95206523 0
-209.90633 -170.22937 -42.631706 0.26920396 7.5038278e-17 -0.96308321 0
-211.12694 -169.06482 -42.64278 0.26920396 1.1147266e-16 -0.96308321 0
-206.01192 -174.19324 -42.645432 0.26920396 1.2019912e-16 -0.96308321 0
-203.75171 -176.71973 -42.698067 0.26920396 2.7294216e-18 -0.96308321 0
-207.46477 -174.19209 -42.909012 0.23211768 0 -0.97268772 0
-205.55383 -175.5845 -42.821514 0.23211768 0 -0.97268772 0
-210.26271 -171.4471 -42.917286 0.19469075 0 -0.9808647 0
-212.44016 -169.84525 -42.998066 0.19469075 0 -0.9808647 0
-209.58932 -173.04253 -43.04385 0.15697809 6.5957311e-17 -0.98760211 0
-207.39827 -175.78149 -43.105431 0.15697809 -1.3446341e-16 -0.98760211 0
-205.34157 -177.96779 -43.119999 0.15697809 -4.7978757e-16 -0.98760211 0
-211.42267 -172.1235 -43.14204 0.11903504 1.0111976e-16 -0.99289006 0
-210.51173 -174.1705 -43.226101 0.080917284 0 -0.99672079 0
-206.78377 -178.14958 -43.240513 0.080917284 0 -0.99672079 0
-208.81197 -175.80019 -43.222073 0.080917284 0 -0.99672079 0
-213.13353 -172.13869 -43.255085 0.04268077 0 -0.99908876 0
-214.42929 -171.41661 -43.272411 0.04268077 0 -0.99908876 0
-212.21422 -173.49666 -43.26833 0.04268077 7.0818526e-17 -0.99908876 0
-210.04379 -175.60265 -43.266384 0.04268077 2.5319652e-16 -0.99908876 0
-208.60289 -177.43883 -43.275909 0.0043816213 8.5585548e-16 -0.9999904 0
-211.69974 -174.79893 -43.277325 0.0043816213 4.0875245e-16 -0.9999904 0
-214.35881 -172.91061 -43.267342 -0.033923961 -8.0559504e-17 -0.9994244 0
-208.67186 -178.88907 -43.260345 -0.033923961 -2.4024515e-17 -0.9994244 0
-212.01328 -176.07562 -43.236382 -0.072179757 -2.7560938e-16 -0.99739164 0
-210.27092 -177.67053 -43.243927 -0.072179757 -1.7523132e-16 -0.99739164 0
-213.45685 -174.95831 -43.219685 -0.072179757 -2.3582088e-16 -0.99739164 0
-207.88606 -180.03372 -43.245037 -0.072179757 1.0370016e-16 -0.99739164 0
-215.94514 -173.15704 -43.168941 -0.11032961 -5.4260663e-17 -0.99389505 0
-214.90532 -174.53926 -43.140476 -0.14831755 7.4943933e-17 -0.98893976 0
-211.51146 -177.89354 -43.144665 -0.14831755 2.3525768e-17 -0.98893976 0
-210.30688 -179.30495 -43.122734 -0.14831755 2.5020308e-16 -0.98893976 0
-209.22499 -180.84396 -43.074249 -0.14831755 8.8721268e-17 -0.98893976 0
-213.58255 -176.89421 -43.024349 -0.1860878 1.3102569e-16 -0.9825331 0
-216.96939 -174.11063 -42.943569 -0.1860878 -4.2702944e-16 -0.9825331 0
-211.76633 -179.54117 -42.906765 -0.22358495 3.7000286e-16 -0.97468442 0
-215.87268 -175.81122 -42.845711 -0.22358495 1.3883103e-16 -0.97468442 0
-212.76872 -178.72678 -42.876278 -0.22358495 2.7757198e-16 -0.97468442 0
-210.62854 -181.22154 -42.818764 -0.22358495 4.706032e-17 -0.97468442 0
-214.27133 -178.04686 -42.731441 -0.26075396 0 -0.96540529 0
-215.84074 -177.15096 -42.595802 -0.29754028 0 -0.95470929 0
-217.14136 -176.16469 -42.526531 -0.29754028 0 -0.95470929 0
-211.97591 -181.34235 -42.52383 -0.29754028 0 -0.95470929 0
-210.51436 -182.81812 -42.520706 -0.29754028 0 -0.95470929 0
-218.29826 -175.57118 -42.393505 -0.3338899 -3.8291789e-16 -0.94261205 0
-213.43245 -180.63034 -42.345081 -0.3338899 9.0957435e-17 -0.94261205 0
-215.05156 -179.1385 -42.313202 -0.3338899 -1.1757536e-16 -0.94261205 0
-219.57474 -174.85109 -42.252922 -0.36974952 -9.8813932e-16 -0.92913145 0
-216.3253 -178.64902 -42.098587 -0.36974952 1.7338874e-16 -0.92913145 0
-212.37218 -182.64236 -42.087276 -0.36974952 5.8113019e-16 -0.92913145 0
-218.43614 -176.84264 -42.00996 -0.40506646 -1.4188198e-16 -0.91428727 0
-215.03932 -180.55441 -41.911266 -0.40506646 6.7602843e-16 -0.91428727 0
-213.63226 -182.69557 -41.669586 -0.43978891 0 -0.89810115 0
-212.43192 -184.00542 -41.631672 -0.43978891 0 -0.89810115 0
-216.50922 -179.90999 -41.637951 -0.43978891 0 -0.89810115 0
-219.98701 -177.3793 -41.288719 -0.47386593 -4.0357419e-16 -0.880597 0
-218.11755 -178.68738 -41.50235 -0.47386593 -3.8591724e-17 -0.880597 0
-216.09843 -181.36818 -41.250568 -0.47386593 -2.1366824e-16 -0.880597 0
-214.12119 -184.03993 -40.962833 -0.50724745 8.4301695e-17 -0.86180043 0
-215.30244 -182.76489 -41.001877 -0.50724745 1.5024261e-16 -0.86180043 0
-213.05463 -185.45645 -40.807255 -0.53988457 1.5566901e-16 -0.84173906 0
-220.37648 -178.89113 -40.45245 -0.5717293 8.7308735e-17 -0.82044232 0
-219.43462 -179.82602 -40.455898 -0.5717293 1.3527346e-16 -0.82044232 0
-218.05844 -180.98471 -40.563061 -0.5717293 2.0005808e-16 -0.82044232 0
-217.18204 -182.16521 -40.413216 -0.5717293 2.1348437e-16 -0.82044232 0
