# .PCD v0.7 - Point Cloud Data file format
VERSION 0.7
FIELDS x y z normal_x normal_y normal_z
SIZE 4 4 4 4 4 4
TYPE F F F F F F
COUNT 1 1 1 1 1 1
WIDTH 619
HEIGHT 1
VIEWPOINT 0 0 0 1 0 0 0
POINTS 619
DATA ascii
-279.6175489 32.48724466 -18.26609105 0.5813028812 -5.047048463e-16 -0.8136872649
-280.6410728 29.96172314 -19.06719643 0.6465111971 4.604649474e-16 -0.7629045248
-280.7157148 31.56962696 -19.13591512 0.6774859428 0 -0.7355357409
-281.156715 33.41786747 -19.55621191 0.7073031664 -8.769488804e-16 -0.7069103122
-281.5344382 32.14241366 -19.95404359 0.735912025 -5.920296912e-16 -0.6770771742
-281.8249314 29.0422057 -20.28958895 0.7632635832 1.202243308e-15 -0.6460872293
-282.292532 32.94547023 -20.89310393 0.8140100837 3.602835848e-16 -0.5808507204
-282.6436482 31.44144607 -21.40898146 0.8373183608 0 -0.5467155576
-283.2588463 30.51689288 -22.50355319 0.8985129595 0 -0.438947022
-283.3973557 31.94384891 -22.79422036 0.9158848524 0 -0.4014410079
-283.8905952 31.71643221 -24.08665531 0.9585067034 0 -0.2850699723
-284.0896389 30.26193662 -24.81008504 0.9694684148 2.196564309e-16 -0.2452161908
-284.2337544 34.30230368 -25.51648881 0.9864069819 2.038458638e-16 -0.1643205881
-284.3109581 29.50406275 -26.04249996 0.9923549294 0 -0.1234169677
-284.3474576 31.66781383 -26.37866355 0.9966074228 0 -0.08230250329
-284.393547 32.42874959 -27.54188969 0.9999999404 7.141590684e-15 0.0002777901827
-284.2872868 31.61740414 -28.9372156 0.9922862053 0 0.1239682809
-284.2821115 33.2763599 -28.97865891 0.9922862053 0 0.1239682809
-284.2757068 30.06576392 -29.02242419 0.9863155484 0 0.1648685783
-283.7712785 31.30338997 -31.06164219 0.9457269907 0 0.3249621987
-283.4344624 29.99501941 -31.91110988 0.9156616926 3.721014556e-15 0.4019497931
-283.3266228 33.4918855 -32.14796439 0.8982689381 9.459840985e-15 0.4394461215
-283.031182 30.9340401 -32.72596904 0.8793414831 -8.044176617e-15 0.4761916697
-282.3372384 32.05025351 -33.83431843 0.8136872649 7.211280642e-16 0.5813028812
-282.255083 30.69859522 -33.94931973 0.8136872649 4.428091777e-16 0.5813028812
-281.9156864 33.61803502 -34.3926406 0.7889698744 -7.007864005e-17 0.6144319177
-281.0419819 32.01661356 -35.34854273 0.7069103122 7.084558509e-16 0.7073031664
-280.9567997 33.78484264 -35.4322464 0.6770771742 0 0.735912025
-280.9628888 30.4376842 -35.42664396 0.6770771742 0 0.735912025
-279.8808343 31.10720124 -36.33599838 0.5808507204 0 0.8140100837
-279.1498425 29.71726763 -36.83245854 0.51164639 -1.065865074e-15 0.8591961265
-278.622879 31.17661344 -37.13820112 0.4757030606 1.091184265e-15 0.8796059489
-277.891577 29.73276005 -37.50572994 0.4014410079 1.136189667e-15 0.9158848524
-277.0128677 32.81060156 -37.86134731 0.3244367242 0 0.945907414
-276.6963558 30.75205099 -37.9699072 0.3244367242 0 0.945907414
-275.1587048 29.4475135 -38.34586706 0.1643205881 0 0.9864069819
-274.9566381 31.36659563 -38.37952839 0.1643205881 0 0.9864069819
-273.5969227 29.68464197 -38.50164944 0.04104742035 7.647041051e-16 0.9991571903
-273.5837903 31.58693238 -38.50218891 0.04104742035 3.885113644e-16 0.9991571903
-272.7854739 33.04372611 -38.49404657 -0.04160252586 1.239463629e-15 0.9991342425
-272.1101923 31.58398408 -38.44494705 -0.1239682809 0 0.9922862053
-271.2924646 29.23802119 -38.3264949 -0.1648685783 9.003097698e-16 0.9863155484
-270.3298537 31.24113476 -38.10780515 -0.2856024504 1.188866963e-15 0.958348155
-269.2372917 30.11348175 -37.74217874 -0.3637667298 2.799948413e-16 0.9314900637
-268.969134 28.75232493 -37.63459775 -0.4019497931 1.135912793e-15 0.9156616926
-268.6925896 31.54771316 -37.51320573 -0.4019497931 1.135912793e-15 0.9156616926
-267.6757657 30.223609 -36.98658389 -0.5121236444 0 0.8589117527
-266.4596851 29.30810171 -36.16263828 -0.6144319177 1.335722121e-15 0.7889698744
-266.1847656 31.05433738 -35.94229003 -0.6465111971 1.892823446e-15 0.7629045248
-266.2536793 32.56538388 -36.00068783 -0.6465111971 1.892823446e-15 0.7629045248
-264.9047205 30.34364801 -34.69272493 -0.7632635832 1.602991006e-15 0.6460872293
-264.2963997 33.05279024 -33.92780832 -0.8140100837 7.205671695e-16 0.5808507204
-264.1698903 29.83760844 -33.75052814 -0.8140100837 3.305941788e-16 0.5808507204
-264.1519403 31.26305425 -33.72537434 -0.8140100837 4.614445327e-16 0.5808507204
-263.3654832 30.92856943 -32.40406436 -0.8985129595 0 0.438947022
-263.2756232 29.32010414 -32.22013487 -0.8985129595 2.695775861e-16 0.438947022
-263.1417918 33.82246679 -31.9325318 -0.9158848524 4.980026981e-16 0.4014410079
-262.7725418 31.05280444 -30.99441475 -0.945907414 1.852903849e-16 0.3244367242
-262.6534724 29.14068918 -30.62657298 -0.9585067034 0 0.2850699723
-262.442501 32.37255286 -29.83129098 -0.9787738323 -2.542400626e-16 0.2049434632
-262.4145013 30.63007031 -29.697543 -0.9787738323 -2.32798046e-16 0.2049434632
-262.2712712 33.66323743 -28.87071821 -0.9923549294 0 0.1234169677
-262.2191231 31.88676963 -28.40759502 -0.9966074228 0 0.08230250329
-262.1816016 30.04754119 -26.96528016 -0.9991342425 -6.501206435e-15 -0.04160252586
-262.199174 33.29636237 -26.62313898 -0.9965615273 9.890176074e-15 -0.08285618573
-262.2718996 31.20066668 -25.91474714 -0.9922862053 -0 -0.1239682809
-262.3884778 34.30232605 -25.21651476 -0.9786598086 2.549146184e-16 -0.2054872066
-262.4018424 29.83991421 -25.1528681 -0.9786598086 2.069061402e-16 -0.2054872066
-262.5182858 32.75336685 -24.647969 -0.9693320394 -0 -0.2457547635
-262.8160615 30.01236412 -23.66900269 -0.9457269907 9.769901322e-17 -0.3249621987
-262.9887627 32.44300821 -23.21456692 -0.9314900637 6.745671631e-17 -0.3637667298
-263.3354213 33.76847456 -22.44763558 -0.8982689381 5.451494519e-16 -0.4394461215
-263.4660534 29.85626783 -22.19278028 -0.8793414831 -0 -0.4761916697
-264.7059941 34.280182 -20.33196016 -0.7629045248 -8.020214576e-16 -0.6465111971
-264.7284309 29.79189849 -20.30548486 -0.7629045248 -7.934583953e-16 -0.6465111971
-265.4177581 32.95038214 -19.54863125 -0.7069103122 1.31615431e-15 -0.7073031664
-265.6565496 29.46085268 -19.31509835 -0.6770771742 -8.964092519e-16 -0.735912025
-266.3308199 31.45948201 -18.72765876 -0.6139934659 9.79170087e-16 -0.789311111
-266.8214373 28.65379192 -18.35748275 -0.5808507204 9.724176452e-16 -0.8140100837
-267.7846479 29.81069949 -17.73870064 -0.51164639 6.835838693e-16 -0.8591961265
-269.2584362 32.55426892 -17.03962531 -0.3632491827 -5.778995044e-16 -0.9316920042
-269.5462813 30.11771093 -16.93136746 -0.3244367242 -0 -0.945907414
-270.6123899 29.25754059 -16.61062396 -0.2452161908 3.003127072e-16 -0.9694684148
-271.8793443 34.05357996 -16.37393358 -0.1234169677 6.155267726e-16 -0.9923549294
-271.9635909 31.40727147 -16.36345599 -0.1234169677 5.428185782e-16 -0.9923549294
-273.3697819 31.53438254 -16.28492668 0.0002777901827 5.182102463e-16 -0.9999999404
-273.2354423 29.41934608 -16.28488931 0.0002777901827 4.705801296e-16 -0.9999999404
-274.6705205 30.10194344 -16.37182405 0.1239682809 1.568528653e-16 -0.9922862053
-271.0756104 20.41959541 -38.28384184 -0.2054872066 -3.156212247e-16 0.9786598086
-272.4984578 13.03552115 -38.4782214 -0.08285618573 0 0.9965615273
-272.468144 19.75154074 -38.47570131 -0.08285618573 0 0.9965615273
-272.6149304 17.62080912 -38.48694437 -0.04160252586 0 0.9991342425
-273.3756745 13.98770919 -38.50518168 -0.0002777901827 0 0.9999999404
-273.6813636 16.77279056 -38.49818067 0.04104742035 -0 0.9991571903
-273.7140536 19.32789607 -38.49683779 0.04104742035 -0 0.9991571903
-274.2101761 15.52416309 -38.46644614 0.08230250329 -0 0.9966074228
-275.1277149 17.19952559 -38.35102951 0.1643205881 -0 0.9864069819
-275.6598887 20.12489735 -38.24849858 0.2049434632 -0 0.9787738323
-275.8418688 13.68445046 -38.20792677 0.2452161908 -0 0.9694684148
-276.4485512 17.48428906 -38.04477692 0.2850699723 8.412109743e-17 0.9585067034
-277.0410112 19.5634138 -37.8516944 0.3244367242 2.397251587e-16 0.945907414
-277.2678306 15.96065111 -37.76627354 0.3632491827 -0 0.9316920042
-277.9033783 14.10414367 -37.5005573 0.4014410079 7.732177234e-16 0.9158848524
-277.7417379 17.36379476 -37.57140616 0.4014410079 7.515459588e-16 0.9158848524
-278.1333733 18.82479295 -37.39073621 0.438947022 -1.661616924e-16 0.8985129595
-278.8741315 13.43542573 -36.99665438 0.51164639 -7.691282566e-16 0.8591961265
-279.0454465 17.68871851 -36.8946301 0.51164639 -1.927288695e-17 0.8591961265
-279.055579 20.04420537 -36.88859582 0.51164639 7.246987001e-16 0.8591961265
-279.7090747 16.11223372 -36.45855686 0.5808507204 -1.457357985e-15 0.8140100837
-280.1240204 12.85632756 -36.14958819 0.6139934659 -0 0.789311111
-280.1609171 17.60672245 -36.12088688 0.6139934659 -1.924501725e-16 0.789311111
-280.4884862 14.38732312 -35.85220803 0.6460872293 -6.832521389e-16 0.7632635832
-280.6075948 19.41398096 -35.75138617 0.6460872293 3.585001769e-16 0.7632635832
-281.2602502 13.13496853 -35.13038204 0.7069103122 -0 0.7073031664
-281.1527031 20.51114679 -35.23787607 0.7069103122 -3.36493991e-16 0.7073031664
-281.1827811 17.87581638 -35.20781294 0.7069103122 -1.849017284e-16 0.7073031664
-281.6979463 14.61406654 -34.6503825 0.7629045248 5.787387023e-16 0.6465111971
-281.9201093 17.02893721 -34.38696137 0.7889698744 5.500222207e-16 0.6144319177
-282.0999619 19.61761256 -34.15602202 0.7889698744 3.669115093e-15 0.6144319177
-282.7470394 16.88166043 -33.21735242 0.8589117527 4.584387421e-16 0.5121236444
-282.8056983 14.59419736 -33.11897147 0.8589117527 4.584387421e-16 0.5121236444
-282.7477631 18.57577241 -33.2161386 0.8589117527 4.584387421e-16 0.5121236444
-283.404122 17.64488117 -31.98022437 0.9156616926 -6.557397464e-15 0.4019497931
-283.5448698 12.7177722 -31.65960577 0.9156616926 -6.557397464e-15 0.4019497931
-283.9618423 14.97794322 -30.46406123 0.958348155 1.308169623e-16 0.2856024504
-283.9184531 20.2074058 -30.60964247 0.958348155 1.727594462e-16 0.2856024504
-284.0176028 13.38803909 -30.26447917 0.9693320394 2.199927735e-16 0.2457547635
-284.0772462 16.75752838 -30.02917261 0.9693320394 1.699878247e-16 0.2457547635
-284.1379606 18.60351686 -29.76620879 0.9786598086 4.37448484e-18 0.2054872066
-284.2898415 13.74185055 -28.91675712 0.9922862053 -0 0.1239682809
-284.2865246 20.10802132 -28.94331909 0.9922862053 -0 0.1239682809
-284.349994 17.41386913 -28.38027117 0.9965615273 -0 0.08285618573
-284.3816741 12.73004695 -27.91244388 0.9991342425 -0 0.04160252586
-284.3935876 19.71118332 -27.38908306 0.9999999404 4.275608627e-15 0.0002777901827
-284.3924162 14.10349892 -27.13852325 0.9991571903 0 -0.04104742035
-284.3701245 12.77796541 -26.65308141 0.9966074228 -3.683744633e-17 -0.08230250329
-284.3529048 17.92556299 -26.44460963 0.9966074228 -2.810531844e-17 -0.08230250329
-284.3096094 19.42528622 -26.03165207 0.9923549294 0 -0.1234169677
-284.2447714 20.63749358 -25.58262858 0.9864069819 -6.925481939e-17 -0.1643205881
-284.1680658 13.62082563 -25.16729069 0.9787738323 -1.834596337e-16 -0.2049434632
-284.1259449 15.27311444 -24.96615397 0.9787738323 -1.53719097e-16 -0.2049434632
-284.0507962 17.49841302 -24.65652909 0.9694684148 -1.495151556e-17 -0.2452161908
-283.8018959 14.07075049 -23.81754721 0.945907414 0 -0.3244367242
-283.5798175 19.38115609 -23.21860227 0.9316920042 -5.357860508e-17 -0.3632491827
-283.2381164 14.71540498 -22.461122 0.8985129595 0 -0.438947022
-282.9743939 16.98655443 -21.95902318 0.8796059489 1.760802015e-16 -0.4757030606
-282.9739422 20.56933342 -21.95818796 0.8796059489 3.691716999e-16 -0.4757030606
-282.8537187 19.14779905 -21.75167962 0.8591961265 3.626723766e-16 -0.51164639
-282.5367701 14.56885921 -21.24530036 0.8373183608 0 -0.5467155576
-282.347482 12.75641694 -20.97011541 0.8140100837 5.199612861e-16 -0.5808507204
-282.3929769 15.83489155 -21.03387558 0.8140100837 5.199612861e-16 -0.5808507204
-281.9868321 17.41624042 -20.48866355 0.789311111 -3.692810093e-16 -0.6139934659
-282.1382981 20.15583254 -20.68338339 0.789311111 -4.747787149e-16 -0.6139934659
-281.6179585 18.86486275 -20.04509622 0.7632635832 -6.652088386e-16 -0.6460872293
-280.980058 20.05222934 -19.37944395 0.7073031664 9.011492441e-16 -0.7069103122
-281.0482973 16.76175102 -19.44772614 0.7073031664 5.058195142e-16 -0.7069103122
-280.807965 14.94703805 -19.22088158 0.6774859428 9.876464516e-16 -0.7355357409
-280.6036911 18.32919114 -19.0355165 0.6465111971 0 -0.7629045248
-279.8943264 19.80094555 -18.46382077 0.5813028812 0 -0.8136872649
-279.5405028 14.84052421 -18.21192485 0.5471807122 1.123907901e-15 -0.8370144963
-278.7696049 19.72648576 -17.73136587 0.4761916697 3.935809264e-16 -0.8793414831
-278.1809282 13.23257664 -17.42257064 0.4394461215 -4.020525793e-16 -0.8982689381
-277.8443343 15.58975006 -17.26368256 0.4019497931 4.098373415e-16 -0.9156616926
-277.528592 20.35998734 -17.1255812 0.3637667298 4.169218986e-16 -0.9314900637
-277.2408909 18.83870385 -17.01322874 0.3637667298 2.210318204e-16 -0.9314900637
-276.8856511 13.38096648 -16.88507206 0.3249621987 0 -0.9457269907
-276.2621258 16.70864387 -16.6897197 0.2856024504 3.832151346e-16 -0.958348155
-275.4860833 13.2675084 -16.50512302 0.2054872066 0 -0.9786598086
-275.7215017 15.57976749 -16.55455309 0.2054872066 0 -0.9786598086
-275.1614304 20.50199372 -16.444673 0.1648685783 2.733573439e-16 -0.9863155484
-274.6759761 16.8055826 -16.37250564 0.1239682809 0 -0.9922862053
-274.5428576 14.85929387 -16.35587474 0.1239682809 2.727039694e-17 -0.9922862053
-274.1977869 13.31578292 -16.32258777 0.08285618573 8.920939354e-16 -0.9965615273
-273.96616 18.45746469 -16.30370184 0.04160252586 0 -0.9991342425
-273.9138192 19.85801815 -16.30152257 0.04160252586 1.58265906e-17 -0.9991342425
-273.1900128 16.21092242 -16.28487667 0.0002777901827 3.793363546e-16 -0.9999999404
-272.8784989 13.70692617 -16.29216785 -0.04104742035 0 -0.9991571903
-272.7003592 17.47091177 -16.29948595 -0.04104742035 0 -0.9991571903
-272.4766899 19.79255838 -16.31370575 -0.08230250329 7.065954762e-17 -0.9966074228
-272.0581621 14.88412306 -16.35169434 -0.1234169677 4.441641193e-16 -0.9923549294
-271.6214144 16.33447854 -16.40866935 -0.1643205881 -4.415019212e-16 -0.9864069819
-271.4949731 18.38251198 -16.42973314 -0.1643205881 -2.64132946e-16 -0.9864069819
-271.0073487 14.10374114 -16.5205495 -0.2049434632 8.761708806e-16 -0.9787738323
-271.1449115 20.19382168 -16.49174625 -0.2049434632 8.164865548e-16 -0.9787738323
-270.6746124 17.23900481 -16.5948847 -0.2452161908 4.339204734e-16 -0.9694684148
-270.4137285 15.28452117 -16.66087563 -0.2452161908 3.020043758e-16 -0.9694684148
-269.9384108 18.99299138 -16.79879838 -0.2850699723 1.688840282e-16 -0.9585067034
-269.5589898 14.14861137 -16.9270086 -0.3244367242 4.233748868e-16 -0.945907414
-269.6321081 16.32906264 -16.90192986 -0.3244367242 3.958882603e-16 -0.945907414
-269.2715672 17.7200169 -17.03450576 -0.3632491827 6.393809405e-17 -0.9316920042
-268.7126246 20.61620228 -17.26797654 -0.4014410079 5.080804495e-16 -0.9158848524
-268.4468516 18.96699149 -17.39281591 -0.438947022 2.475455546e-16 -0.8985129595
-268.1478391 13.88758718 -17.54164228 -0.4757030606 -3.936992728e-16 -0.8796059489
-267.2118595 15.91473095 -18.09069739 -0.5467155576 1.49908791e-15 -0.8373183608
-267.2435421 20.0695286 -18.07000986 -0.5467155576 6.081319203e-16 -0.8373183608
-267.0167014 14.18353212 -18.21815174 -0.5808507204 -1.093018515e-15 -0.8140100837
-266.8642589 17.47600257 -18.32692736 -0.5808507204 -1.089211951e-15 -0.8140100837
-266.2782205 19.21194461 -18.76874083 -0.6460872293 -6.832521389e-16 -0.7632635832
-266.2506404 20.54471476 -18.79208675 -0.6460872293 -6.075348484e-16 -0.7632635832
-265.779325 16.03046339 -19.20213646 -0.6770771742 3.293839023e-16 -0.735912025
-265.7113422 18.02553713 -19.26468533 -0.6770771742 4.341230172e-16 -0.735912025
-265.117322 14.26842026 -19.86181548 -0.7355357409 -9.096996211e-16 -0.6774859428
-265.0014754 16.84630669 -19.98758728 -0.7355357409 -4.534961376e-16 -0.6774859428
-264.7069474 18.39697494 -20.33083525 -0.7629045248 2.893693511e-16 -0.6465111971
-264.3408949 15.18017468 -20.80006242 -0.8136872649 6.087303072e-15 -0.5813028812
-263.9460861 19.46476149 -21.37395932 -0.8370144963 -2.431582389e-16 -0.5471807122
-263.6536356 17.76164439 -21.85153369 -0.8589117527 0 -0.5121236444
-263.5957349 16.24552706 -21.95330273 -0.8793414831 0 -0.4761916697
-263.4853165 14.65085712 -22.15720779 -0.8793414831 0 -0.4761916697
-262.9046902 20.56100305 -23.42985283 -0.9314900637 -3.256337962e-16 -0.3637667298
-262.7531167 14.84959277 -23.85218958 -0.9457269907 -2.908970545e-16 -0.3249621987
-262.8069081 18.97250499 -23.69564167 -0.9457269907 -2.660786642e-16 -0.3249621987
-262.7663471 16.87869817 -23.81368552 -0.9457269907 -2.637637756e-16 -0.3249621987
-262.4002849 14.5867441 -25.16028554 -0.9786598086 -1.839463864e-16 -0.2054872066
-262.3587366 17.7113515 -25.36362716 -0.9863155484 0 -0.1648685783
-262.3153438 20.08163894 -25.62326935 -0.9863155484 -8.298770722e-17 -0.1648685783
-262.2929197 16.35684112 -25.75744474 -0.9863155484 -5.744101824e-17 -0.1648685783
-262.2042676 12.75914072 -26.56187181 -0.9965615273 0 -0.08285618573
-262.175356 16.15271748 -27.11531532 -0.9991342425 -2.419665508e-15 -0.04160252586
-262.1732589 17.94192567 -27.58966002 -0.9999999404 7.16127369e-15 -0.0002777901827
-262.1816353 13.70723559 -27.82569181 -0.9991571903 7.155339621e-15 0.04104742035
-262.2184179 20.14618386 -28.3990573 -0.9966074228 7.367489266e-17 0.08230250329
-262.2136344 16.7509849 -28.34114559 -0.9966074228 7.367489266e-17 0.08230250329
-262.2667373 12.93323473 -28.8342711 -0.9923549294 1.104794073e-16 0.1234169677
-262.2859412 15.34327812 -28.98864658 -0.9923549294 7.501321657e-17 0.1234169677
-262.3055407 17.91000657 -29.10769495 -0.9864069819 0 0.1643205881
-262.4313313 14.04168388 -29.77793614 -0.9787738323 0 0.2049434632
-262.5761338 15.50753372 -30.36655652 -0.9585067034 0 0.2850699723
-262.7367499 18.25002075 -30.89005969 -0.945907414 2.9042666e-16 0.3244367242
-262.8597103 16.66271028 -31.24474495 -0.9316920042 0 0.3632491827
-263.1342741 13.46777877 -31.91537969 -0.9158848524 0 0.4014410079
-263.2066873 18.41667716 -32.07903384 -0.8985129595 3.92933052e-16 0.438947022
-263.7719442 14.79421459 -33.13701269 -0.8591961265 0 0.51164639
-263.7897841 17.87979224 -33.16697018 -0.8591961265 1.714110541e-16 0.51164639
-263.894025 16.2671649 -33.33628546 -0.8373183608 4.894044667e-16 0.5467155576
-264.2828044 19.38638703 -33.90875704 -0.8140100837 2.579372831e-16 0.5808507204
-264.5469787 18.03230323 -34.25882276 -0.789311111 0 0.6139934659
-264.8766211 20.59104293 -34.65952819 -0.7632635832 -4.283098026e-16 0.6460872293
-265.1012286 12.71424308 -34.91076085 -0.735912025 -6.061005135e-16 0.6770771742
-265.3338944 15.79156322 -35.15750606 -0.7073031664 0 0.7069103122
-265.8002426 14.51227743 -35.60721538 -0.6774859428 1.3168619e-15 0.7355357409
-265.8006875 17.81112784 -35.6076252 -0.6774859428 1.135978418e-15 0.7355357409
-266.0215359 19.42736915 -35.80396839 -0.6465111971 5.165224382e-16 0.7629045248
-266.45443 15.80891788 -36.15854583 -0.6144319177 -7.062636947e-16 0.7889698744
-266.9805365 18.00290636 -36.54624608 -0.5813028812 4.253736483e-16 0.8136872649
-267.0830873 14.27881337 -36.6151947 -0.5471807122 7.492718985e-16 0.8370144963
-267.4675763 13.03619487 -36.86245407 -0.5121236444 0 0.8589117527
-267.7169595 15.74313577 -37.01114505 -0.5121236444 0 0.8589117527
-268.2398947 17.61721873 -37.29602084 -0.4394461215 -8.041051587e-16 0.8982689381
-268.3957602 20.4779014 -37.37227184 -0.4394461215 -8.041051587e-16 0.8982689381
-268.7907548 15.15212172 -37.55629634 -0.4019497931 -8.19674683e-16 0.9156616926
-268.7385066 13.07483308 -37.53336147 -0.4019497931 -8.19674683e-16 0.9156616926
-268.9453302 18.97496563 -37.62414883 -0.4019497931 -3.328837487e-16 0.9156616926
-269.640644 16.70061469 -37.89103107 -0.3249621987 0 0.9457269907
-270.1819783 18.97225937 -38.06373549 -0.2856024504 0 0.958348155
-270.6360316 13.4483491 -38.1854607 -0.2457547635 0 0.9693320394
-270.7744839 17.61122764 -38.22056371 -0.2457547635 -5.34528117e-16 0.9693320394
-270.9933008 26.70854127 -38.2665599 -0.2054872066 9.285837439e-16 0.9786598086
-270.8430309 22.22676255 -38.23500883 -0.2054872066 -3.263501209e-16 0.9786598086
-271.0007761 24.10045337 -38.26812942 -0.2054872066 4.744639679e-16 0.9786598086
-269.5997319 26.06147216 -37.87697411 -0.3249621987 1.70018488e-17 0.9457269907
-269.6353748 24.62528326 -37.88922064 -0.3249621987 0 0.9457269907
-269.4158789 21.38930247 -37.81192602 -0.3637667298 1.080193019e-16 0.9314900637
-269.1988917 22.86007442 -37.7271816 -0.3637667298 3.235643024e-16 0.9314900637
-268.369887 25.41962919 -37.35961441 -0.4394461215 9.933163331e-16 0.8982689381
-267.963999 22.78113546 -37.14897194 -0.4761916697 -3.372466381e-16 0.8793414831
-267.7433628 28.25483033 -37.02688765 -0.5121236444 0 0.8589117527
-267.702227 26.42730876 -37.00236103 -0.5121236444 0 0.8589117527
-267.5395771 21.43920745 -36.9053835 -0.5121236444 0 0.8589117527
-267.083487 25.10775524 -36.615456 -0.5471807122 1.879028475e-16 0.8370144963
-266.6846384 22.60136193 -36.33483935 -0.5813028812 3.401667532e-16 0.8136872649
-265.774129 25.31177256 -35.58316149 -0.6774859428 -5.465399026e-16 0.7355357409
-265.5244794 27.88191501 -35.34819178 -0.7073031664 -1.149374639e-15 0.7069103122
-265.1816126 26.68146581 -34.99812745 -0.735912025 4.389540846e-16 0.6770771742
-265.0213277 24.17365048 -34.82391927 -0.735912025 5.476567543e-16 0.6770771742
-265.040495 22.90885541 -34.84475159 -0.735912025 2.207531745e-16 0.6770771742
-264.5475347 27.93419433 -34.25953758 -0.789311111 2.905768885e-16 0.6139934659
-264.1205242 22.78018137 -33.68135032 -0.8140100837 3.518670076e-16 0.5808507204
-263.9124383 25.27406623 -33.36448844 -0.8373183608 5.996988074e-16 0.5467155576
-263.8141294 28.22597157 -33.20785199 -0.8591961265 5.160415231e-16 0.51164639
-263.674909 23.86546283 -32.97406662 -0.8591961265 1.066622578e-16 0.51164639
-263.4787925 21.45045952 -32.62073482 -0.8796059489 2.319260263e-16 0.4757030606
-263.1853028 22.62467533 -32.03180373 -0.9158848524 3.542581988e-16 0.4014410079
-262.8494675 23.84887876 -31.21847195 -0.9316920042 9.115747404e-17 0.3632491827
-262.7690622 20.96859427 -30.98426966 -0.945907414 1.433212513e-16 0.3244367242
-262.6793229 25.13111951 -30.71348344 -0.9585067034 1.107190568e-16 0.2850699723
-262.620002 22.43307389 -30.51404371 -0.9585067034 9.968552674e-17 0.2850699723
-262.5188898 26.88293961 -30.14456329 -0.9694684148 -1.349177708e-16 0.2452161908
-262.3918344 24.29994055 -29.58926825 -0.9787738323 8.696744109e-17 0.2049434632
-262.29977 21.70484427 -29.07305084 -0.9864069819 0 0.1643205881
-262.2267334 28.49544197 -28.49972986 -0.9966074228 -7.864535278e-18 0.08230250329
-262.194656 27.10007257 -28.1113832 -0.9966074228 -6.943737712e-17 0.08230250329
-262.1910216 24.11921966 -28.054097 -0.9991571903 1.224532664e-18 0.04104742035
-262.173259 21.75594991 -27.5894663 -0.9999999404 5.45792869e-15 -0.0002777901827
-262.1806261 26.23956053 -26.98871314 -0.9991342425 2.596453365e-15 -0.04160252586
-262.1908795 27.6802568 -26.74240211 -0.9991342425 9.20523375e-15 -0.04160252586
-262.1979744 23.35214243 -26.63756819 -0.9965615273 -2.759383168e-15 -0.08285618573
-262.22857 21.93707327 -26.26955479 -0.9965615273 -3.751891378e-16 -0.08285618573
-262.3469248 28.37189014 -25.43430366 -0.9863155484 1.567305204e-16 -0.1648685783
-262.3604716 25.24026831 -25.35324631 -0.9863155484 1.132417534e-16 -0.1648685783
-262.5176639 26.68721576 -24.65042161 -0.9693320394 -5.232114132e-17 -0.2457547635
-262.5048859 21.6302704 -24.70082004 -0.9693320394 -1.278620989e-16 -0.2457547635
-262.6008374 23.33014882 -24.34024101 -0.958348155 4.097001795e-17 -0.2856024504
-262.9687018 22.42124723 -23.2659373 -0.9314900637 -1.510457199e-16 -0.3637667298
-263.2712893 27.89112041 -22.57871035 -0.8982689381 2.788947272e-16 -0.4394461215
-263.3694703 23.49113952 -22.37804522 -0.8982689381 2.935286373e-15 -0.4394461215
-263.5327449 26.45371313 -22.0696237 -0.8793414831 1.682944708e-15 -0.4761916697
-263.5172418 21.92398488 -22.09825268 -0.8793414831 3.051574012e-15 -0.4761916697
-264.1827829 23.55159978 -21.02136273 -0.8136872649 -2.617468777e-16 -0.5813028812
-264.2574119 21.94688284 -20.91690881 -0.8136872649 2.128841981e-15 -0.5813028812
-264.3776557 26.7143042 -20.74870921 -0.7889698744 1.386647858e-15 -0.6144319177
-264.5914155 28.5077417 -20.47420318 -0.7889698744 -5.294788144e-16 -0.6144319177
-265.02834 21.03473826 -19.95842097 -0.7355357409 1.297435322e-16 -0.6774859428
-265.258734 27.02713061 -19.70828806 -0.7355357409 8.702391487e-16 -0.6774859428
-265.4921799 23.42165392 -19.47425318 -0.7069103122 -3.832298593e-16 -0.7073031664
-266.3701343 26.52736362 -18.69707674 -0.6139934659 4.234464995e-16 -0.789311111
-266.4970673 23.13681664 -18.59833769 -0.6139934659 -3.299307711e-16 -0.789311111
-266.9564092 21.75848346 -18.26117333 -0.5808507204 -6.656093997e-16 -0.8140100837
-267.6648055 26.53456198 -17.81006495 -0.51164639 1.298999396e-15 -0.8591961265
-267.9028822 23.31989274 -17.67411912 -0.4757030606 -1.120689594e-16 -0.8796059489
-268.1770087 24.71861813 -17.52586686 -0.4757030606 3.470204096e-16 -0.8796059489
-268.1148687 22.06162331 -17.5594732 -0.4757030606 -2.105810256e-16 -0.8796059489
-269.2892396 27.2665416 -17.02761561 -0.3632491827 -1.002785864e-19 -0.9316920042
-269.763749 23.28817495 -16.85677857 -0.3244367242 -4.295431974e-17 -0.945907414
-270.682068 26.81633756 -16.59299882 -0.2452161908 -9.481576417e-17 -0.9694684148
-270.4067066 21.56774648 -16.66265185 -0.2452161908 -3.47799283e-16 -0.9694684148
-271.3501971 23.00429199 -16.45385129 -0.1643205881 7.365589401e-16 -0.9864069819
-271.8834763 21.51366552 -16.37341968 -0.1234169677 -1.051283806e-16 -0.9923549294
-272.0486324 26.23612855 -16.35287953 -0.1234169677 -4.751412013e-17 -0.9923549294
-272.381157 28.2638415 -16.32159478 -0.08230250329 1.748636682e-17 -0.9966074228
-273.4172137 26.26170316 -16.28493988 0.0002777901827 3.398178691e-17 -0.9999999404
-273.8863948 28.04374944 -16.30038072 0.04160252586 2.993068004e-17 -0.9991342425
-273.8807927 22.05107638 -16.30014747 0.04160252586 9.192531335e-17 -0.9991342425
-274.7223181 25.93042006 -16.37829528 0.1239682809 6.868304019e-16 -0.9922862053
-274.7675182 23.28024028 -16.38394228 0.1239682809 4.409775251e-16 -0.9922862053
-275.4876309 24.87566544 -16.50544798 0.2054872066 4.012469914e-16 -0.9786598086
-276.005447 26.62755092 -16.62350366 0.2457547635 1.644210702e-16 -0.9693320394
-276.2109951 22.4277349 -16.67561445 0.2457547635 6.224047294e-16 -0.9693320394
-277.0592153 28.24932957 -16.94471116 0.3249621987 0 -0.9457269907
-276.7548772 24.748746 -16.84013635 0.3249621987 0 -0.9457269907
-277.5550102 26.97451733 -17.13667946 0.4019497931 8.263784281e-17 -0.9156616926
-277.7102436 21.75907798 -17.20482149 0.4019497931 3.519268881e-16 -0.9156616926
-278.3672924 25.91927311 -17.51374867 0.4394461215 2.454850623e-16 -0.8982689381
-278.9414986 28.44562452 -17.8335068 0.5121236444 2.298286221e-16 -0.8589117527
-279.1735708 24.28124758 -17.97205231 0.5471807122 2.299578844e-16 -0.8370144963
-279.5615115 21.26579974 -18.22605796 0.5813028812 9.750356034e-16 -0.8136872649
-279.7387427 22.83819124 -18.35267183 0.5813028812 5.552477287e-16 -0.8136872649
-280.015531 27.65485094 -18.55599928 0.6144319177 4.691257777e-16 -0.7889698744
-280.3631678 25.46315217 -18.8316794 0.6465111971 3.597199073e-16 -0.7629045248
-280.8448073 26.98983724 -19.25481495 0.6774859428 -5.491280776e-16 -0.7355357409
-280.9316006 21.9280556 -19.33475538 0.6774859428 5.391564849e-16 -0.7355357409
-281.649532 24.96401679 -20.08239334 0.7632635832 2.606433205e-16 -0.6460872293
-282.0902582 27.5416129 -20.62162489 0.789311111 5.117949866e-16 -0.6139934659
-282.1648652 21.59920275 -20.71753717 0.789311111 -3.804685026e-16 -0.6139934659
-282.4835438 24.07860679 -21.16378578 0.8373183608 2.772353125e-16 -0.5467155576
-282.5300381 26.25180902 -21.23499055 0.8373183608 1.432416273e-16 -0.5467155576
-282.80527 28.44676348 -21.67032283 0.8591961265 -2.526246758e-16 -0.51164639
-283.2730543 27.33049946 -22.53263496 0.8985129595 0 -0.438947022
-283.2608826 23.18226558 -22.50772113 0.8985129595 0 -0.438947022
-283.4174098 25.83638003 -22.83997464 0.9158848524 0 -0.4014410079
-283.4299975 21.67855833 -22.86869398 0.9158848524 0 -0.4014410079
-283.6544535 24.14752166 -23.41000954 0.9316920042 1.70601651e-16 -0.3632491827
-283.8602464 22.44477213 -23.98767459 0.945907414 -6.70446861e-18 -0.3244367242
-283.9321966 26.48939916 -24.22655347 0.9585067034 2.636495299e-16 -0.2850699723
-283.8762132 20.96881202 -24.03829122 0.9585067034 1.86113745e-17 -0.2850699723
-284.0408003 23.78062854 -24.61701248 0.9694684148 -5.879792263e-17 -0.2452161908
-284.181702 28.28606079 -25.23240643 0.9787738323 1.917728682e-16 -0.2049434632
-284.1737046 25.47422127 -25.19421715 0.9787738323 1.439134234e-16 -0.2049434632
-284.255197 26.80192443 -25.64521821 0.9864069819 -1.057877718e-17 -0.1643205881
-284.2456439 22.07246306 -25.58786647 0.9864069819 -6.755443741e-17 -0.1643205881
-284.3470927 24.61558771 -26.37424586 0.9966074228 0 -0.08230250329
-284.3649261 27.81208054 -26.59014663 0.9966074228 0 -0.08230250329
-284.3788538 25.90485139 -26.80849686 0.9991571903 2.137838584e-15 -0.04104742035
-284.3823853 21.32241074 -26.89443274 0.9991571903 8.468522151e-16 -0.04104742035
-284.3655143 22.27011905 -28.19373694 0.9965615273 0 0.08285618573
-284.3008799 26.70574489 -28.82836164 0.9922862053 0 0.1239682809
-284.3335637 23.91315135 -28.56662925 0.9922862053 0 0.1239682809
-284.2722056 28.24461701 -29.04336489 0.9863155484 0 0.1648685783
-284.1685594 25.39971101 -29.62048712 0.9786598086 3.679263473e-17 0.2054872066
-284.1468181 21.40030454 -29.72402625 0.9786598086 3.657328513e-17 0.2054872066
-283.8653948 25.77699793 -30.78766576 0.958348155 4.521756871e-17 0.2856024504
-283.8248849 23.78088134 -30.90563267 0.9457269907 8.784851774e-17 0.3249621987
-283.5036949 27.2236959 -31.75340062 0.9156616926 2.5229266e-15 0.4019497931
-283.3800832 23.05152427 -32.03498384 0.9156616926 -1.070265482e-15 0.4019497931
-283.3030713 20.7083627 -32.19610672 0.8982689381 -2.332290685e-15 0.4394461215
-283.2233352 25.69835798 -32.3590976 0.8982689381 -7.859363872e-15 0.4394461215
-282.8417808 24.02603324 -33.05845497 0.8589117527 -8.483932022e-18 0.5121236444
-282.4751898 20.98878836 -33.63886841 0.8370144963 -3.676829999e-16 0.5471807122
-282.5659716 22.40796674 -33.50000765 0.8370144963 1.950930575e-16 0.5471807122
-282.386511 27.87812958 -33.76534657 0.8136872649 4.214178303e-16 0.5813028812
-282.1626219 26.2735714 -34.07556354 0.7889698744 1.723412177e-15 0.6144319177
-282.0301159 24.96686497 -34.24570758 0.7889698744 2.281055375e-15 0.6144319177
-281.7942621 23.56965153 -34.53673066 0.7629045248 6.867924207e-17 0.6465111971
-280.9968737 24.44933037 -35.39362866 0.7069103122 -4.285825444e-17 0.7073031664
-280.8946386 26.90872635 -35.48943929 0.6770771742 0 0.735912025
-280.6167817 28.44894033 -35.74360978 0.6460872293 6.510907345e-17 0.7632635832
-280.2642884 23.66303868 -36.04047608 0.6139934659 -1.234249716e-16 0.789311111
-279.9112457 25.10655084 -36.31429843 0.5808507204 1.012039896e-16 0.8140100837
-279.8560465 20.9908708 -36.35368561 0.5808507204 -6.408841798e-17 0.8140100837
-279.2928674 28.35094293 -36.73995859 0.5467155576 2.099226443e-16 0.8373183608
-279.2000458 22.90038201 -36.80056269 0.5467155576 5.041283249e-16 0.8373183608
-278.8248795 26.96018806 -37.0259857 0.51164639 1.009931554e-15 0.8591961265
-278.34605 24.98040523 -37.28684127 0.438947022 2.456130169e-16 0.8985129595
-277.9936509 20.65370769 -37.45899216 0.438947022 -7.527506551e-17 0.8985129595
-277.6040472 23.87705808 -37.63175756 0.4014410079 3.471286114e-16 0.9158848524
-277.3705615 26.33664236 -37.72622112 0.3632491827 2.351931894e-16 0.9316920042
-276.0763802 26.97839411 -38.14861187 0.2452161908 5.445182525e-16 0.9694684148
-276.2224889 23.7018371 -38.11165664 0.2452161908 4.426638162e-16 0.9694684148
-274.9111984 26.2841781 -38.38709798 0.1643205881 0 0.9864069819
-274.5027276 27.95958556 -38.43911029 0.1234169677 0 0.9923549294
-274.6499059 23.7757568 -38.42080538 0.1234169677 1.021568955e-16 0.9923549294
-274.5460477 22.13322685 -38.43372246 0.1234169677 4.883901603e-16 0.9923549294
-274.0961163 25.24671785 -38.47586558 0.08230250329 2.478076198e-16 0.9966074228
-273.0641782 27.35133388 -38.50509631 -0.0002777901827 1.04929287e-15 0.9999999404
-272.8709535 24.60196023 -38.49760632 -0.04160252586 6.190618355e-16 0.9991342425
-272.6625928 21.21413348 -38.48892925 -0.04160252586 9.004287065e-17 0.9991342425
-272.3994715 22.62336035 -38.46999234 -0.08285618573 0 0.9965615273
-272.1055419 25.76430491 -38.44436606 -0.1239682809 0 0.9922862053
-272.7293859 12.69999981 -39.85958962 -7.193704668e-17 -1 1.117270587e-15
-273.9591417 12.69999981 -39.02961308 4.257794766e-17 -1 1.11761678e-15
-275.3563817 12.69999981 -38.86836063 1.771635022e-16 -1 1.104275725e-15
-277.8748907 12.69999981 -37.84915274 0 -1 0
-279.4687897 12.69999981 -38.13020995 0 -1 0
-283.5022883 12.69999981 -33.5362426 0 -1 0
-281.537081 12.69999981 -19.42164765 0 -1 0
-280.2063066 12.69999981 -18.10268104 0 -1 0
-272.8520328 12.69999981 -14.94134941 1.655677052e-17 -1 1.119732402e-15
-266.2404199 12.69999981 -18.00223646 0 -1 0
-263.1184861 12.69999981 -20.0299729 0 -1 0
-262.4699555 12.69999981 -21.11836105 0 -1 0
-262.5406374 12.69999981 -23.52538466 0 -1 0
-262.3140443 12.69999981 -30.30074529 0 -1 0
-263.1605592 12.69999981 -33.70852017 0 -1 0
-266.3206923 12.69999981 -36.12308142 0 -1 0
-277.6777642 39.97897952 -17.18950402 0.404828459 0 -0.9143926501
-277.8505067 36.57284662 -17.2667613 0.4077394605 0.0002232801635 -0.9130982757
-277.9929748 41.40318478 -17.33060438 0.4394461215 -0.0002227726218 -0.8982689381
-280.0303235 42.9376553 -18.56751919 0.6144319177 0 -0.7889698744
-280.0706371 41.56907993 -18.59891389 0.6144319177 6.549143543e-16 -0.7889698744
-281.1066692 42.98180417 -19.50613468 0.7073031664 -8.361605382e-16 -0.7069103122
-282.6009669 40.13453545 -21.3430109 0.8373183608 -0.0002513129439 -0.5467155576
-282.1070629 38.69604224 -20.64267786 0.7937647104 0.0002497773676 -0.6082248688
-282.0778692 41.16148959 -20.60558462 0.7893110514 -0.0002470617474 -0.6139934659
-281.7073873 39.99075556 -20.15018803 0.7632635236 -0.0002449171152 -0.6460872293
-281.6351652 36.62285824 -20.06560558 0.7407197952 0.0002454881032 -0.6718140841
-281.0543632 38.20382259 -19.45268883 0.7073031664 -0.000240589754 -0.7069103122
-280.6762583 37.0077008 -19.09882707 0.6517517567 0.0002389589936 -0.7584323287
-280.4582503 40.28151115 -18.91190015 0.6465111971 -0.0002362116211 -0.7629044652
-280.0723754 38.84632041 -18.59949463 0.6144318581 -0.000234003528 -0.7889698148
-279.2862263 40.41510911 -18.04541645 0.5471806526 -0.000229549245 -0.8370144963
-278.9965181 37.09540749 -17.86592293 0.5177562833 0.0002300758206 -0.8555281162
-278.7617024 38.75589523 -17.72766281 0.4818895161 0.0002278233005 -0.8762319684
-283.0051213 41.69631126 -22.01340796 0.8796058297 -0.000423992431 -0.4757030308
-283.5473597 42.08512652 -23.13638384 0.9171327353 0 -0.3985818923
-283.9501033 41.2844857 -24.28704913 0.9598453641 0.005388770718 -0.280477792
-284.1177423 42.67685283 -24.92463886 0.9787737727 -0.0002705977822 -0.2049434483
-284.3733644 42.21742763 -26.69198701 0.9967261553 -9.604022192e-17 -0.08085155487
-284.3802268 41.39864148 -27.94999141 0.9990993142 0 0.04243367538
-284.3440647 42.77254471 -28.45219898 0.9965096116 0 0.08347793669
-284.3212545 44.38749395 -28.66523391 0.9922862053 -5.896291623e-05 0.1239682809
-284.1727184 41.30465095 -29.60087409 0.9787024856 0 0.2052836716
-283.756781 41.28657157 -31.10452207 0.9461978674 0.001604222925 0.323584646
-283.7840826 42.93756679 -31.024908 0.9457269907 -0.00011550419 0.3249621987
-282.7489898 43.40776364 -33.21458275 0.8589116931 -0.0002462624398 0.5121236444
-279.922551 39.02756351 -36.30547869 0.5868965983 0.0002540158748 0.8096618652
-279.4975605 42.92167404 -36.60631235 0.5467155576 1.98082424e-15 0.8373183608
-278.147016 41.67106652 -37.3840716 0.438947022 1.153765882e-15 0.8985129595
-276.772299 42.92514574 -37.94385955 0.3244367242 1.624693673e-15 0.945907414
-273.9469031 40.31137932 -38.48715871 0.04737299681 0.0002232801635 0.9988772273
-274.4030675 37.77081684 -38.44983661 0.08869045973 0.0002255580766 0.9960592389
-274.6137008 35.98868537 -38.42582766 0.1298558116 0.0002278233005 0.9915328622
-275.2026519 39.3495856 -38.33895517 0.1707984507 0.0002300758206 0.9853059649
-275.529023 37.01060729 -38.27662867 0.2114481628 0.0002323156514 0.9773891568
-276.7525379 39.06261904 -37.95123361 0.3244366944 -0.0002362116211 0.9459073544
-277.0818976 37.744459 -37.83691192 0.33094576 0.0002389589936 0.9436497688
-277.552586 40.05026469 -37.65468055 0.4014410079 -0.000240589754 0.9158848524
-278.1868071 36.87832795 -37.36496631 0.4453408122 0.0002454881032 0.8953611255
-278.847922 38.09749035 -37.01322468 0.51164639 -0.0002470617474 0.8591960669
-279.1251819 40.26499992 -36.84719741 0.5178943872 0.0002497773676 0.8554445505
-269.554632 43.32088722 -37.86213436 -0.3249621391 -0.0005496889935 0.9457268715
-267.4033541 43.39569678 -36.82430082 -0.52461797 0 0.8513377905
-266.9156436 41.28227902 -36.49941809 -0.5708524585 0.01152783632 0.8209717274
-264.7763204 43.63595285 -34.54191431 -0.7632634044 -0.0006997525343 0.6460870504
-263.8838809 43.86487847 -33.32152258 -0.837318182 -0.0007198501844 0.5467154384
-263.0525013 43.13586926 -31.73121057 -0.915884614 -0.0007381697651 0.4014409184
-262.3052876 42.27587473 -29.11378927 -0.9880384207 0 0.1542079747
-262.1733907 42.46686955 -27.19305542 -0.9999999404 -1.892580025e-14 -0.0002777901827
-262.8814453 42.89195891 -23.48937668 -0.9314900637 -4.302771994e-16 -0.3637667298
-263.2946296 43.7195816 -22.53100673 -0.8982689381 1.803969605e-14 -0.4394461215
-263.2610597 39.22305352 -22.59744449 -0.8982688785 -0.0004268982157 -0.4394460917
-263.136249 37.79359104 -22.8663775 -0.915661633 -0.0004269743804 -0.4019497633
-262.8143471 40.14157861 -23.67225709 -0.9457269311 -0.000427088642 -0.3249621689
-262.6354917 37.05165744 -24.2173398 -0.9583480954 -0.0004271267098 -0.2856024206
-262.532595 38.73245919 -24.58682555 -0.9693319201 -0.0004271521175 -0.2457547486
-262.3012764 40.65508282 -25.70538083 -0.9863154292 -0.0004271648068 -0.1648685634
-262.2589663 39.23995381 -26.01061677 -0.9922860861 -0.0004271521175 -0.1239682734
-262.1977138 36.92682369 -26.65075567 -0.9980757833 0.0004287573393 -0.06200410053
-262.1731211 40.90415757 -27.31002332 -0.9999998808 -0.0004270378558 -0.0002777901536
-262.1723892 39.1935642 -27.53341788 -0.999783814 0.000428655796 0.02078742348
-264.0739823 42.82986733 -21.17710421 -0.8313803673 1.441671591e-14 -0.5557037592
-266.1775925 43.37696152 -18.85288879 -0.6460870504 -0.0007302210433 -0.7632633448
-267.2977707 42.69036184 -18.03340229 -0.5398840308 -1.021990652e-14 -0.8417394161
-268.1064502 43.94634035 -17.56362497 -0.4757029414 -0.0006997525343 -0.8796057105
-269.6393924 43.17861825 -16.89853778 -0.3244366348 -0.0006644783425 -0.9459071755
-271.0351762 42.193637 -16.5134447 -0.1988069266 -3.760265974e-15 -0.9800387025
-272.2212243 42.96815141 -16.33392057 -0.08230248839 -0.0005934016663 -0.996607244
-275.423665 42.36786638 -16.49098751 0.2054871917 -0.0004829285317 -0.9786596894
-276.4340247 41.34853464 -16.73995201 0.2892132699 0 -0.9572646618
-277.3252933 42.86351446 -17.04549884 0.3637667 -0.0004064803652 -0.9314900041
-280.4603439 42.45223007 -35.87709664 0.6487817168 0 0.760974586
-271.2483046 43.80483091 -16.47056925 -0.1787147224 -3.38224978e-15 -0.9839009047
-264.7360234 41.42600091 -20.29446808 -0.7700178623 -7.546771863e-16 -0.6380223036
-263.5754282 42.45309135 -32.80112544 -0.8754044771 0 0.4833911061
-265.5122617 42.32857688 -35.33706445 -0.7021200657 0 0.7120585442
-266.2494059 43.93813706 -35.99737741 -0.6412398815 0 0.7673404813
-268.0448131 42.0136091 -37.19386292 -0.471039772 2.08679145e-15 0.8821119666
-270.8745356 17.10063934 -39.8634674 0.2042384446 -1.293903284e-15 -0.978921175
-270.4967093 18.42229652 -39.784639 0.2042384446 -5.966471483e-16 -0.978921175
-269.9963996 13.29966233 -39.6617792 0.2420428842 1.072486771e-17 -0.9702655673
-269.6125197 20.99956195 -39.55108719 0.2794832587 2.407903248e-16 -0.9601505399
-269.3508747 17.86564971 -39.46865392 0.3165032566 0 -0.9485914111
-268.9894249 19.63669382 -39.3462399 0.3530472219 0 -0.935605526
-268.6223641 15.48338867 -39.2077261 0.3530472219 -1.459532818e-16 -0.935605526
-268.2908661 17.21090392 -39.07006993 0.3890601695 -8.158569241e-16 -0.9212123156
-267.7832209 19.48652622 -38.84018048 0.4244879186 1.034036207e-17 -0.9054335952
-266.2905938 16.73368982 -37.99439912 0.5592962503 0 -0.8289678693
-265.2881733 21.511778 -37.26015959 0.6218531728 3.232920548e-16 -0.7831338644
-264.3603942 13.93273884 -36.42938444 0.7085646987 5.588060583e-16 -0.7056458592
-264.1062337 21.360397 -36.17366263 0.7353935242 0 -0.6776403189
-263.2483201 13.15267367 -35.1754272 0.7856941223 -4.898858461e-16 -0.6186151505
-263.1440914 14.64527406 -35.04191838 0.8090902567 4.653915061e-16 -0.5876843929
-262.2108845 20.9267789 -33.61015437 0.8718454838 3.878611246e-16 -0.4897810221
-261.8344076 17.92708671 -32.88833705 0.9071781039 3.331924271e-16 -0.4207468033
-261.3849347 15.70497265 -31.82836181 0.9370548725 2.765198878e-16 -0.3491821587
-261.0531817 21.15674916 -30.80934759 0.9612960815 1.505334666e-16 -0.2755174935
-260.9896629 16.31017806 -30.57605328 0.9712564349 9.425108981e-17 -0.2380356789
-260.7563232 14.52143941 -29.46885243 0.986781776 -6.251516926e-15 -0.1620548815
-260.7263627 17.12693706 -29.2863837 0.986781776 -4.153127191e-15 -0.1620548815
-260.6856959 19.36297865 -28.98441686 0.9923233986 9.968618931e-18 -0.1236701831
-260.6300588 18.15369412 -28.45407669 0.9963724613 2.858530179e-17 -0.08509946615
-260.5860594 17.49316729 -27.1898971 0.9995148182 -1.233305614e-17 0.03114772774
-260.6013789 21.3595157 -26.7289902 0.9975553155 -0 0.06988085806
-260.6413966 19.27456757 -26.1951303 0.9940955043 -0 0.1085088849
-260.8508399 14.14230597 -24.80292938 0.9826975465 1.152684947e-17 0.185217455
-260.8753527 18.91851037 -24.69555957 0.9747766256 8.836996801e-17 0.2231826335
-260.9361129 20.34306461 -24.43017763 0.9747766256 -7.721925953e-17 0.2231826335
-261.1741091 14.56096478 -23.5747189 0.9545505047 6.401364678e-15 0.2980493009
-261.1159145 13.06132505 -23.76111079 0.9545505047 6.401364678e-15 0.2980493009
-261.2774862 18.35853661 -23.25963158 0.9422756433 -0 0.3348382115
-261.3845793 20.25055873 -22.95830718 0.9422756433 1.962973629e-16 0.3348382115
-261.6222672 13.83969258 -22.36815359 0.9134947062 6.10941275e-15 0.4068505466
-261.9669451 20.32737046 -21.63363479 0.8970319629 -4.273582395e-16 0.4419656694
-262.2782607 18.45978349 -21.059237 0.860085547 -4.039913583e-16 0.5101498365
-262.3912634 15.79476337 -20.86872926 0.860085547 -4.039913583e-16 0.5101498365
-262.8064026 17.41303946 -20.21966836 0.8179664612 -2.277786209e-16 0.5752658844
-263.4852172 13.81983581 -19.31888098 0.7709280252 -2.521916722e-16 0.6369222403
-263.6077546 20.81404938 -19.17056731 0.7709280252 3.268167479e-16 0.6369222403
-263.7166426 15.51175367 -19.04473315 0.7456513643 5.276765387e-16 0.6663362384
-263.9744102 17.05689047 -18.75627419 0.7456513643 1.557367092e-16 0.6663362384
-264.3563927 14.18730103 -18.36306826 0.6917731762 8.577720015e-16 0.722114861
-265.2198049 19.53430852 -17.58649603 0.6337345243 1.061970384e-16 0.7735506296
-265.6397507 21.26047713 -17.25581375 0.6032631993 -4.750782549e-16 0.7975421548
-266.1456157 15.81615982 -16.89248542 0.5718845129 -2.749445474e-16 0.8203341365
-267.1636672 19.58952658 -16.26870572 0.4727826715 -0 0.8811790943
-267.6862996 15.43201244 -15.99755239 0.4382590652 3.559023862e-16 0.8988487124
-267.5765299 21.30816438 -16.05107382 0.4382590652 1.587945766e-16 0.8988487124
-268.314722 16.85764914 -15.70880781 0.4030762911 -6.598255043e-16 0.915166378
-268.4895787 12.81153127 -15.63629783 0.3672872484 3.682794699e-16 0.9301075935
-268.9475159 19.15426495 -15.45982808 0.33094576 -1.868207795e-16 0.9436497688
-270.0159401 13.57275012 -15.1250377 0.2568248808 -0 0.966457963
-270.5981466 21.29668109 -14.98420967 0.2191569656 -6.549922516e-17 0.97568959
-270.9135043 16.65210651 -14.92034554 0.1811594218 -0 0.9834537506
-271.3784531 19.83164964 -14.84079615 0.1428893954 -7.837812384e-16 0.9897386432
-272.0171498 15.67629588 -14.76057634 0.1044044569 -7.87579387e-16 0.9945349097
-272.2588219 20.87295042 -14.7373994 0.06576247513 -9.910482075e-18 0.9978352785
-273.0409346 19.67682754 -14.6993338 0.02702158503 -3.004418089e-16 0.9996348619
-274.1361329 15.59310193 -14.72431584 -0.05052379519 -1.977239729e-16 0.9987228513
-275.5979834 16.18599525 -14.90841401 -0.1661268175 -5.856774374e-16 0.9861043692
-276.106526 18.72613881 -15.0130011 -0.2042384446 -3.30197166e-16 0.978921175
-276.3652024 17.50589911 -15.07706673 -0.2420428842 -1.920900788e-16 0.9702655673
-278.1192441 17.93766375 -15.65375817 -0.3890601695 -1.094272124e-15 0.9212123156
-279.5088305 16.64001884 -16.328142 -0.4933757186 0 0.8698163033
-279.3499131 15.26810471 -16.23800459 -0.4933757186 0 0.8698163033
-280.597173 15.69984766 -17.01260511 -0.5910192132 -6.38797891e-16 0.8066574931
-280.8515861 19.90815319 -17.19900827 -0.5910192132 -1.947208044e-16 0.8066574931
-280.9261433 18.56852116 -17.25363478 -0.5910192132 -1.579716472e-16 0.8066574931
-281.2644094 13.87216329 -17.51851489 -0.6218531728 3.100846801e-16 0.7831338644
-281.7561324 15.18967216 -17.93475379 -0.6806701422 8.702150214e-16 0.7325900197
-282.0480557 21.56772615 -18.20597994 -0.6806701422 -5.667808912e-16 0.7325900197
-282.615143 15.56883853 -18.78404138 -0.7353935242 0 0.6776403189
-284.4068207 18.55512712 -21.27034895 -0.8718454838 3.651791553e-16 0.4897810221
-284.7379254 17.20841414 -21.91344521 -0.9071781039 3.331924271e-16 0.4207468033
-285.0083782 15.27803843 -22.52102235 -0.9228104949 1.525427987e-16 0.3852542043
-285.0174981 19.37393683 -22.54286704 -0.9228104949 2.030412457e-16 0.3852542043
-285.3731852 12.73773825 -23.51228828 -0.9498898387 0 0.3125849068
-285.4261615 18.37371438 -23.67525677 -0.9612960815 -6.308242723e-15 0.2755174935
-285.4582263 20.50096674 -23.78712556 -0.9612960815 -5.43655738e-15 0.2755174935
-285.7152659 21.42933402 -24.8102051 -0.9797558784 -4.881585467e-17 0.200195834
-285.8656092 20.37549915 -25.68035952 -0.9923233986 4.896765628e-17 0.1236701831
-285.978031 14.30195975 -27.69009294 -0.9995148182 -1.233305614e-17 -0.03114772774
-285.9679751 19.98792714 -28.01259703 -0.9995148182 -2.918898031e-18 -0.03114772774
-285.9603946 18.63065797 -28.13415881 -0.9975553155 0 -0.06988085806
-285.96039 21.36851965 -28.13422427 -0.9975553155 -4.555612011e-18 -0.06988085806
-285.8923982 13.07516615 -28.8982175 -0.9940955043 -4.296448563e-17 -0.1085088849
-285.6622755 14.07260319 -30.22245808 -0.9747766256 0 -0.2231826335
-285.6314976 17.13997551 -30.35688672 -0.9747766256 -2.309839147e-17 -0.2231826335
-285.3592973 20.66219083 -31.32259694 -0.9545505047 1.900983783e-15 -0.2980493009
-284.6895606 13.24980976 -32.9746027 -0.8970319629 0 -0.4419656694
-284.7481193 21.6444026 -32.85574797 -0.8970319629 -5.413331381e-17 -0.4419656694
-284.3172448 18.74308794 -33.68258933 -0.860085547 -8.079827167e-16 -0.5101498365
-284.1393689 16.05195514 -33.9824997 -0.860085547 -7.0073254e-16 -0.5101498365
-283.2568979 21.34531432 -35.25632409 -0.795045197 4.803315262e-16 -0.6065502167
-282.8383546 17.7592647 -35.75866346 -0.7456513643 0 -0.6663362384
-282.8683001 15.16901686 -35.72515546 -0.7456513643 0 -0.6663362384
-282.7939423 19.89204327 -35.8083594 -0.7456513643 -9.081050979e-17 -0.6663362384
-282.4716641 13.15806674 -36.15929535 -0.7192531824 -5.501760101e-16 -0.694748044
-281.4092809 13.66553794 -37.15262487 -0.6337345243 1.225160631e-15 -0.7735506296
-281.1965104 20.46135707 -37.32693563 -0.6337345243 -9.127301669e-17 -0.7735506296
-280.2160449 15.9133543 -38.03352551 -0.5396456718 -6.667005857e-16 -0.8418922424
